-76.3975 180.746 37.2025 0.00 0.00 0.00
-77.0347 179.09 36.5653 0.00 0.00 0.00
-77.6719 177.433 35.9281 0.00 0.00 0.00
-70.2204 192.441 41.546 0.00 0.00 0.00
-69.1408 190.881 40.792 0.00 0.00 0.00
-68.0612 189.322 40.038 0.00 0.00 0.00
-66.9816 187.762 39.284 0.00 0.00 0.00
-65.902 186.203 38.53 0.00 0.00 0.00
-64.8224 184.643 37.776 0.00 0.00 0.00
-63.7428 183.084 37.0219 0.00 0.00 0.00
-62.6632 181.525 36.2679 0.00 0.00 0.00
-61.5836 179.965 35.5139 0.00 0.00 0.00
-60.504 178.406 34.7599 0.00 0.00 0.00
-70.604 192.376 41.5148 0.00 0.00 0.00
-69.9081 190.752 40.7296 0.00 0.00 0.00
-69.2121 189.128 39.9444 0.00 0.00 0.00
-68.5161 187.504 39.1592 0.00 0.00 0.00
-67.8201 185.88 38.374 0.00 0.00 0.00
-67.1242 184.256 37.5888 0.00 0.00 0.00
-66.4282 182.632 36.8036 0.00 0.00 0.00
-65.7322 181.008 36.0184 0.00 0.00 0.00
-65.0362 179.385 35.2332 0.00 0.00 0.00
-64.3402 177.761 34.448 0.00 0.00 0.00
-71.0434 192.332 41.4935 0.00 0.00 0.00
-70.7868 190.664 40.687 0.00 0.00 0.00
-70.5302 188.996 39.8805 0.00 0.00 0.00
-70.2735 187.328 39.074 0.00 0.00 0.00
-70.0169 185.66 38.2675 0.00 0.00 0.00
-69.7603 183.992 37.461 0.00 0.00 0.00
-69.5037 182.324 36.6544 0.00 0.00 0.00
-69.2471 180.656 35.8479 0.00 0.00 0.00
-68.9905 178.988 35.0414 0.00 0.00 0.00
-68.7338 177.32 34.2349 0.00 0.00 0.00
-71.4837 192.328 41.4918 0.00 0.00 0.00
-71.6674 190.657 40.6836 0.00 0.00 0.00
-71.8511 188.985 39.8754 0.00 0.00 0.00
-72.0347 187.314 39.0672 0.00 0.00 0.00
-72.2184 185.642 38.259 0.00 0.00 0.00
-72.4021 183.971 37.4507 0.00 0.00 0.00
-72.5858 182.299 36.6425 0.00 0.00 0.00
-72.7695 180.628 35.8343 0.00 0.00 0.00
-72.9532 178.956 35.0261 0.00 0.00 0.00
-73.1368 177.285 34.2179 0.00 0.00 0.00
-71.9281 192.367 41.5104 0.00 0.00 0.00
-72.5562 190.734 40.7207 0.00 0.00 0.00
-73.1844 189.101 39.9311 0.00 0.00 0.00
-73.8125 187.468 39.1414 0.00 0.00 0.00
-74.4406 185.834 38.3518 0.00 0.00 0.00
-75.0687 184.201 37.5622 0.00 0.00 0.00
-75.6969 182.568 36.7725 0.00 0.00 0.00
-76.325 180.935 35.9829 0.00 0.00 0.00
-76.9531 179.302 35.1932 0.00 0.00 0.00
-77.5812 177.669 34.4036 0.00 0.00 0.00
-70.2352 192.462 41.3873 0.00 0.00 0.00
-69.1703 190.924 40.4746 0.00 0.00 0.00
-68.1055 189.386 39.5619 0.00 0.00 0.00
-67.0407 187.848 38.6491 0.00 0.00 0.00
-65.9758 186.31 37.7364 0.00 0.00 0.00
-64.911 184.771 36.8237 0.00 0.00 0.00
-63.8462 183.233 35.911 0.00 0.00 0.00
-62.7813 181.695 34.9983 0.00 0.00 0.00
-61.7165 180.157 34.0856 0.00 0.00 0.00
-60.6517 178.619 33.1729 0.00 0.00 0.00
-70.6161 192.404 41.353 0.00 0.00 0.00
-69.9321 190.808 40.406 0.00 0.00 0.00
-69.2481 189.212 39.459 0.00 0.00 0.00
-68.5642 187.616 38.512 0.00 0.00 0.00
-67.8802 186.021 37.565 0.00 0.00 0.00
-67.1963 184.425 36.618 0.00 0.00 0.00
-66.5124 182.829 35.6709 0.00 0.00 0.00
-65.8284 181.233 34.7239 0.00 0.00 0.00
-65.1444 179.637 33.7769 0.00 0.00 0.00
-64.4605 178.041 32.8299 0.00 0.00 0.00
-71.0485 192.365 41.33 0.00 0.00 0.00
-70.797 190.731 40.36 0.00 0.00 0.00
-70.5455 189.096 39.3899 0.00 0.00 0.00
-70.2941 187.461 38.4199 0.00 0.00 0.00
-70.0426 185.827 37.4499 0.00 0.00 0.00
-69.7911 184.192 36.4799 0.00 0.00 0.00
-69.5396 182.557 35.5098 0.00 0.00 0.00
-69.2881 180.923 34.5398 0.00 0.00 0.00
-69.0366 179.288 33.5698 0.00 0.00 0.00
-68.7851 177.653 32.5998 0.00 0.00 0.00
-71.48 192.362 41.3282 0.00 0.00 0.00
-71.6599 190.725 40.3563 0.00 0.00 0.00
-71.8399 189.087 39.3845 0.00 0.00 0.00
-72.0199 187.449 38.4126 0.00 0.00 0.00
-72.1999 185.811 37.4408 0.00 0.00 0.00
-72.3798 184.174 36.4689 0.00 0.00 0.00
-72.5598 182.536 35.4971 0.00 0.00 0.00
-72.7398 180.898 34.5252 0.00 0.00 0.00
-72.9198 179.26 33.5534 0.00 0.00 0.00
-73.0997 177.623 32.5815 0.00 0.00 0.00
-71.9169 192.396 41.3482 0.00 0.00 0.00
-72.5339 190.792 40.3963 0.00 0.00 0.00
-73.1508 189.188 39.4445 0.00 0.00 0.00
-73.7677 187.584 38.4927 0.00 0.00 0.00
-74.3846 185.98 37.5409 0.00 0.00 0.00
-75.0016 184.376 36.589 0.00 0.00 0.00
-75.6185 182.772 35.6372 0.00 0.00 0.00
-76.2354 181.168 34.6854 0.00 0.00 0.00
-76.8523 179.564 33.7335 0.00 0.00 0.00
-77.4693 177.96 32.7817 0.00 0.00 0.00
-70.2495 192.483 41.2495 0.00 0.00 0.00
-69.199 190.965 40.199 0.00 0.00 0.00
-68.1486 189.448 39.1486 0.00 0.00 0.00
-67.0981 187.931 38.0981 0.00 0.00 0.00
-66.0476 186.413 37.0476 0.00 0.00 0.00
-64.9971 184.896 35.9971 0.00 0.00 0.00
-63.9466 183.378 34.9466 0.00 0.00 0.00
-62.8961 181.861 33.8961 0.00 0.00 0.00
-61.8457 180.344 32.8457 0.00 0.00 0.00
-60.7952 178.826 31.7952 0.00 0.00 0.00
-70.6275 192.431 41.2137 0.00 0.00 0.00
-69.955 190.862 40.1273 0.00 0.00 0.00
-69.2825 189.293 39.041 0.00 0.00 0.00
-68.61 187.723 37.9547 0.00 0.00 0.00
-67.9376 186.154 36.8684 0.00 0.00 0.00
-67.2651 184.585 35.782 0.00 0.00 0.00
-66.5926 183.016 34.6957 0.00 0.00 0.00
-65.9201 181.447 33.6094 0.00 0.00 0.00
-65.2476 179.878 32.5231 0.00 0.00 0.00
-64.5751 178.309 31.4367 0.00 0.00 0.00
-71.0533 192.397 41.19 0.00 0.00 0.00
-70.8067 190.793 40.08 0.00 0.00 0.00
-70.56 189.19 38.97 0.00 0.00 0.00
-70.3133 187.587 37.86 0.00 0.00 0.00
-70.0667 185.983 36.75 0.00 0.00 0.00
-69.82 184.38 35.64 0.00 0.00 0.00
-69.5733 182.777 34.53 0.00 0.00 0.00
-69.3267 181.173 33.42 0.00 0.00 0.00
-69.08 179.57 32.31 0.00 0.00 0.00
-68.8333 177.967 31.2 0.00 0.00 0.00
-71.4765 192.394 41.1881 0.00 0.00 0.00
-71.653 190.788 40.0763 0.00 0.00 0.00
-71.8295 189.182 38.9644 0.00 0.00 0.00
-72.006 187.576 37.8525 0.00 0.00 0.00
-72.1824 185.97 36.7407 0.00 0.00 0.00
-72.3589 184.364 35.6288 0.00 0.00 0.00
-72.5354 182.758 34.5169 0.00 0.00 0.00
-72.7119 181.152 33.4051 0.00 0.00 0.00
-72.8884 179.546 32.2932 0.00 0.00 0.00
-73.0649 177.94 31.1813 0.00 0.00 0.00
-71.9063 192.424 41.2087 0.00 0.00 0.00
-72.5126 190.847 40.1174 0.00 0.00 0.00
-73.1189 189.271 39.0261 0.00 0.00 0.00
-73.7251 187.695 37.9347 0.00 0.00 0.00
-74.3314 186.118 36.8434 0.00 0.00 0.00
-74.9377 184.542 35.7521 0.00 0.00 0.00
-75.544 182.966 34.6608 0.00 0.00 0.00
-76.1503 181.389 33.5695 0.00 0.00 0.00
-76.7566 179.813 32.4782 0.00 0.00 0.00
-77.3629 178.237 31.3869 0.00 0.00 0.00
-70.2661 192.507 41.102 0.00 0.00 0.00
-69.2322 191.013 39.904 0.00 0.00 0.00
-68.1983 189.52 38.706 0.00 0.00 0.00
-67.1644 188.026 37.508 0.00 0.00 0.00
-66.1306 186.533 36.31 0.00 0.00 0.00
-65.0967 185.04 35.112 0.00 0.00 0.00
-64.0628 183.546 33.914 0.00 0.00 0.00
-63.0289 182.053 32.716 0.00 0.00 0.00
-61.995 180.559 31.518 0.00 0.00 0.00
-60.9611 179.066 30.32 0.00 0.00 0.00
-70.6405 192.461 41.0656 0.00 0.00 0.00
-69.981 190.922 39.8311 0.00 0.00 0.00
-69.3215 189.384 38.5967 0.00 0.00 0.00
-68.662 187.845 37.3622 0.00 0.00 0.00
-68.0025 186.306 36.1278 0.00 0.00 0.00
-67.343 184.767 34.8934 0.00 0.00 0.00
-66.6835 183.228 33.6589 0.00 0.00 0.00
-66.024 181.689 32.4245 0.00 0.00 0.00
-65.3646 180.151 31.1901 0.00 0.00 0.00
-64.7051 178.612 29.9556 0.00 0.00 0.00
-71.0587 192.432 41.0419 0.00 0.00 0.00
-70.8174 190.863 39.7838 0.00 0.00 0.00
-70.5762 189.295 38.5257 0.00 0.00 0.00
-70.3349 187.727 37.2676 0.00 0.00 0.00
-70.0936 186.158 36.0096 0.00 0.00 0.00
-69.8523 184.59 34.7515 0.00 0.00 0.00
-69.6111 183.022 33.4934 0.00 0.00 0.00
-69.3698 181.454 32.2353 0.00 0.00 0.00
-69.1285 179.885 30.9772 0.00 0.00 0.00
-68.8872 178.317 29.7191 0.00 0.00 0.00
-71.4726 192.429 41.0401 0.00 0.00 0.00
-71.6452 190.859 39.7801 0.00 0.00 0.00
-71.8178 189.288 38.5202 0.00 0.00 0.00
-71.9904 187.718 37.2603 0.00 0.00 0.00
-72.163 186.147 36.0003 0.00 0.00 0.00
-72.3356 184.576 34.7404 0.00 0.00 0.00
-72.5082 183.006 33.4805 0.00 0.00 0.00
-72.6808 181.435 32.2205 0.00 0.00 0.00
-72.8533 179.865 30.9606 0.00 0.00 0.00
-73.0259 178.294 29.7006 0.00 0.00 0.00
-71.8943 192.455 41.0606 0.00 0.00 0.00
-72.4885 190.91 39.8211 0.00 0.00 0.00
-73.0828 189.365 38.5817 0.00 0.00 0.00
-73.677 187.82 37.3422 0.00 0.00 0.00
-74.2713 186.275 36.1028 0.00 0.00 0.00
-74.8655 184.73 34.8633 0.00 0.00 0.00
-75.4598 183.185 33.6239 0.00 0.00 0.00
-76.054 181.639 32.3844 0.00 0.00 0.00
-76.6483 180.094 31.145 0.00 0.00 0.00
-77.2426 178.549 29.9055 0.00 0.00 0.00
-70.2812 192.528 40.974 0.00 0.00 0.00
-69.2625 191.057 39.648 0.00 0.00 0.00
-68.2437 189.585 38.322 0.00 0.00 0.00
-67.225 188.114 36.996 0.00 0.00 0.00
-66.2062 186.642 35.67 0.00 0.00 0.00
-65.1874 185.171 34.344 0.00 0.00 0.00
-64.1687 183.699 33.018 0.00 0.00 0.00
-63.1499 182.228 31.692 0.00 0.00 0.00
-62.1312 180.756 30.366 0.00 0.00 0.00
-61.1124 179.285 29.04 0.00 0.00 0.00
-70.6521 192.488 40.9378 0.00 0.00 0.00
-70.0043 190.977 39.5756 0.00 0.00 0.00
-69.3564 189.465 38.2134 0.00 0.00 0.00
-68.7085 187.953 36.8513 0.00 0.00 0.00
-68.0607 186.442 35.4891 0.00 0.00 0.00
-67.4128 184.93 34.1269 0.00 0.00 0.00
-66.7649 183.418 32.7647 0.00 0.00 0.00
-66.1171 181.906 31.4025 0.00 0.00 0.00
-65.4692 180.395 30.0403 0.00 0.00 0.00
-64.8213 178.883 28.6781 0.00 0.00 0.00
-71.0635 192.463 40.9147 0.00 0.00 0.00
-70.827 190.925 39.5294 0.00 0.00 0.00
-70.5904 189.388 38.144 0.00 0.00 0.00
-70.3539 187.851 36.7587 0.00 0.00 0.00
-70.1174 186.313 35.3734 0.00 0.00 0.00
-69.8809 184.776 33.9881 0.00 0.00 0.00
-69.6444 183.238 32.6027 0.00 0.00 0.00
-69.4079 181.701 31.2174 0.00 0.00 0.00
-69.1713 180.164 29.8321 0.00 0.00 0.00
-68.9348 178.626 28.4468 0.00 0.00 0.00
-71.4692 192.461 40.9129 0.00 0.00 0.00
-71.6383 190.921 39.5258 0.00 0.00 0.00
-71.8075 189.382 38.1386 0.00 0.00 0.00
-71.9766 187.843 36.7515 0.00 0.00 0.00
-72.1458 186.303 35.3644 0.00 0.00 0.00
-72.315 184.764 33.9773 0.00 0.00 0.00
-72.4841 183.224 32.5902 0.00 0.00 0.00
-72.6533 181.685 31.2031 0.00 0.00 0.00
-72.8224 180.146 29.816 0.00 0.00 0.00
-72.9916 178.606 28.4288 0.00 0.00 0.00
-71.8835 192.483 40.9329 0.00 0.00 0.00
-72.467 190.966 39.5658 0.00 0.00 0.00
-73.0506 189.449 38.1987 0.00 0.00 0.00
-73.6341 187.931 36.8316 0.00 0.00 0.00
-74.2176 186.414 35.4645 0.00 0.00 0.00
-74.8011 184.897 34.0973 0.00 0.00 0.00
-75.3847 183.38 32.7302 0.00 0.00 0.00
-75.9682 181.863 31.3631 0.00 0.00 0.00
-76.5517 180.346 29.996 0.00 0.00 0.00
-77.1352 178.828 28.6289 0.00 0.00 0.00
-70.2979 192.553 40.8367 0.00 0.00 0.00
-69.2959 191.105 39.3733 0.00 0.00 0.00
-68.2938 189.658 37.91 0.00 0.00 0.00
-67.2917 188.21 36.4466 0.00 0.00 0.00
-66.2896 186.763 34.9833 0.00 0.00 0.00
-65.2876 185.315 33.5199 0.00 0.00 0.00
-64.2855 183.868 32.0566 0.00 0.00 0.00
-63.2834 182.42 30.5932 0.00 0.00 0.00
-62.2813 180.973 29.1299 0.00 0.00 0.00
-61.2793 179.526 27.6666 0.00 0.00 0.00
-70.6647 192.518 40.8014 0.00 0.00 0.00
-70.0294 191.035 39.3028 0.00 0.00 0.00
-69.3942 189.553 37.8042 0.00 0.00 0.00
-68.7589 188.071 36.3056 0.00 0.00 0.00
-68.1236 186.588 34.807 0.00 0.00 0.00
-67.4883 185.106 33.3083 0.00 0.00 0.00
-66.853 183.624 31.8097 0.00 0.00 0.00
-66.2178 182.141 30.3111 0.00 0.00 0.00
-65.5825 180.659 28.8125 0.00 0.00 0.00
-64.9472 179.177 27.3139 0.00 0.00 0.00
-71.0686 192.496 40.7792 0.00 0.00 0.00
-70.8371 190.991 39.2584 0.00 0.00 0.00
-70.6057 189.487 37.7376 0.00 0.00 0.00
-70.3743 187.983 36.2168 0.00 0.00 0.00
-70.1429 186.479 34.6959 0.00 0.00 0.00
-69.9114 184.974 33.1751 0.00 0.00 0.00
-69.68 183.47 31.6543 0.00 0.00 0.00
-69.4486 181.966 30.1335 0.00 0.00 0.00
-69.2172 180.461 28.6127 0.00 0.00 0.00
-68.9857 178.957 27.0919 0.00 0.00 0.00
-71.4655 192.494 40.7775 0.00 0.00 0.00
-71.631 190.988 39.255 0.00 0.00 0.00
-71.7965 189.482 37.7324 0.00 0.00 0.00
-71.962 187.976 36.2099 0.00 0.00 0.00
-72.1275 186.47 34.6874 0.00 0.00 0.00
-72.293 184.964 33.1649 0.00 0.00 0.00
-72.4584 183.458 31.6424 0.00 0.00 0.00
-72.6239 181.952 30.1198 0.00 0.00 0.00
-72.7894 180.446 28.5973 0.00 0.00 0.00
-72.9549 178.94 27.0748 0.00 0.00 0.00
-71.8719 192.513 40.7966 0.00 0.00 0.00
-72.4439 191.026 39.2933 0.00 0.00 0.00
-73.0158 189.539 37.7899 0.00 0.00 0.00
-73.5877 188.052 36.2866 0.00 0.00 0.00
-74.1596 186.565 34.7832 0.00 0.00 0.00
-74.7316 185.078 33.2799 0.00 0.00 0.00
-75.3035 183.591 31.7765 0.00 0.00 0.00
-75.8754 182.104 30.2732 0.00 0.00 0.00
-76.4474 180.617 28.7698 0.00 0.00 0.00
-77.0193 179.13 27.2665 0.00 0.00 0.00
-70.3126 192.574 40.717 0.00 0.00 0.00
-69.3252 191.148 39.1341 0.00 0.00 0.00
-68.3378 189.721 37.5511 0.00 0.00 0.00
-67.3504 188.295 35.9682 0.00 0.00 0.00
-66.3631 186.869 34.3852 0.00 0.00 0.00
-65.3757 185.443 32.8023 0.00 0.00 0.00
-64.3883 184.016 31.2193 0.00 0.00 0.00
-63.4009 182.59 29.6363 0.00 0.00 0.00
-62.4135 181.164 28.0534 0.00 0.00 0.00
-61.4261 179.738 26.4704 0.00 0.00 0.00
-70.6756 192.543 40.683 0.00 0.00 0.00
-70.0512 191.086 39.066 0.00 0.00 0.00
-69.4268 189.629 37.449 0.00 0.00 0.00
-68.8024 188.172 35.832 0.00 0.00 0.00
-68.1781 186.715 34.215 0.00 0.00 0.00
-67.5537 185.259 32.598 0.00 0.00 0.00
-66.9293 183.802 30.981 0.00 0.00 0.00
-66.3049 182.345 29.364 0.00 0.00 0.00
-65.6805 180.888 27.747 0.00 0.00 0.00
-65.0561 179.431 26.1299 0.00 0.00 0.00
-71.0729 192.524 40.6618 0.00 0.00 0.00
-70.8459 191.048 39.0237 0.00 0.00 0.00
-70.6188 189.572 37.3855 0.00 0.00 0.00
-70.3917 188.096 35.7473 0.00 0.00 0.00
-70.1646 186.62 34.1092 0.00 0.00 0.00
-69.9376 185.144 32.471 0.00 0.00 0.00
-69.7105 183.668 30.8328 0.00 0.00 0.00
-69.4834 182.192 29.1947 0.00 0.00 0.00
-69.2563 180.716 27.5565 0.00 0.00 0.00
-69.0293 179.24 25.9183 0.00 0.00 0.00
-71.4624 192.523 40.6602 0.00 0.00 0.00
-71.6247 191.045 39.0204 0.00 0.00 0.00
-71.7871 189.568 37.3806 0.00 0.00 0.00
-71.9494 188.09 35.7409 0.00 0.00 0.00
-72.1118 186.613 34.1011 0.00 0.00 0.00
-72.2741 185.135 32.4613 0.00 0.00 0.00
-72.4365 183.658 30.8215 0.00 0.00 0.00
-72.5988 182.181 29.1817 0.00 0.00 0.00
-72.7612 180.703 27.5419 0.00 0.00 0.00
-72.9236 179.226 25.9021 0.00 0.00 0.00
-71.8619 192.539 40.6785 0.00 0.00 0.00
-72.4238 191.078 39.0569 0.00 0.00 0.00
-72.9858 189.617 37.4354 0.00 0.00 0.00
-73.5477 188.156 35.8138 0.00 0.00 0.00
-74.1096 186.695 34.1923 0.00 0.00 0.00
-74.6715 185.234 32.5707 0.00 0.00 0.00
-75.2335 183.773 30.9492 0.00 0.00 0.00
-75.7954 182.312 29.3276 0.00 0.00 0.00
-76.3573 180.851 27.7061 0.00 0.00 0.00
-76.9192 179.39 26.0845 0.00 0.00 0.00
-70.3284 192.597 40.5881 0.00 0.00 0.00
-69.3568 191.193 38.8762 0.00 0.00 0.00
-68.3851 189.79 37.1643 0.00 0.00 0.00
-67.4135 188.386 35.4524 0.00 0.00 0.00
-66.4419 186.983 33.7405 0.00 0.00 0.00
-65.4703 185.579 32.0285 0.00 0.00 0.00
-64.4986 184.176 30.3166 0.00 0.00 0.00
-63.527 182.772 28.6047 0.00 0.00 0.00
-62.5554 181.369 26.8928 0.00 0.00 0.00
-61.5838 179.965 25.1809 0.00 0.00 0.00
-70.6871 192.57 40.5557 0.00 0.00 0.00
-70.0742 191.14 38.8113 0.00 0.00 0.00
-69.4614 189.71 37.067 0.00 0.00 0.00
-68.8485 188.28 35.3227 0.00 0.00 0.00
-68.2356 186.85 33.5783 0.00 0.00 0.00
-67.6227 185.42 31.834 0.00 0.00 0.00
-67.0099 183.99 30.0896 0.00 0.00 0.00
-66.397 182.56 28.3453 0.00 0.00 0.00
-65.7841 181.13 26.601 0.00 0.00 0.00
-65.1712 179.7 24.8566 0.00 0.00 0.00
-71.0775 192.554 40.5358 0.00 0.00 0.00
-70.855 191.107 38.7715 0.00 0.00 0.00
-70.6325 189.661 37.0073 0.00 0.00 0.00
-70.4099 188.215 35.2431 0.00 0.00 0.00
-70.1874 186.768 33.4788 0.00 0.00 0.00
-69.9649 185.322 31.7146 0.00 0.00 0.00
-69.7424 183.876 29.9504 0.00 0.00 0.00
-69.5199 182.429 28.1862 0.00 0.00 0.00
-69.2974 180.983 26.4219 0.00 0.00 0.00
-69.0748 179.536 24.6577 0.00 0.00 0.00
-71.4591 192.552 40.5343 0.00 0.00 0.00
-71.6182 191.105 38.7685 0.00 0.00 0.00
-71.7772 189.657 37.0028 0.00 0.00 0.00
-71.9363 188.21 35.237 0.00 0.00 0.00
-72.0954 186.762 33.4713 0.00 0.00 0.00
-72.2545 185.314 31.7055 0.00 0.00 0.00
-72.4135 183.867 29.9398 0.00 0.00 0.00
-72.5726 182.419 28.174 0.00 0.00 0.00
-72.7317 180.972 26.4083 0.00 0.00 0.00
-72.8908 179.524 24.6425 0.00 0.00 0.00
-71.8514 192.566 40.5514 0.00 0.00 0.00
-72.4027 191.133 38.8028 0.00 0.00 0.00
-72.9541 189.699 37.0541 0.00 0.00 0.00
-73.5055 188.266 35.3055 0.00 0.00 0.00
-74.0568 186.832 33.5569 0.00 0.00 0.00
-74.6082 185.399 31.8083 0.00 0.00 0.00
-75.1596 183.965 30.0596 0.00 0.00 0.00
-75.7109 182.532 28.311 0.00 0.00 0.00
-76.2623 181.098 26.5624 0.00 0.00 0.00
-76.8137 179.664 24.8138 0.00 0.00 0.00
-70.342 192.616 40.4752 0.00 0.00 0.00
-69.3839 191.232 38.6504 0.00 0.00 0.00
-68.4259 189.849 36.8256 0.00 0.00 0.00
-67.4679 188.465 35.0007 0.00 0.00 0.00
-66.5099 187.081 33.1759 0.00 0.00 0.00
-65.5518 185.697 31.3511 0.00 0.00 0.00
-64.5938 184.313 29.5263 0.00 0.00 0.00
-63.6358 182.929 27.7015 0.00 0.00 0.00
-62.6777 181.546 25.8767 0.00 0.00 0.00
-61.7197 180.162 24.0518 0.00 0.00 0.00
-70.6969 192.593 40.4443 0.00 0.00 0.00
-70.0938 191.186 38.5887 0.00 0.00 0.00
-69.4907 189.778 36.733 0.00 0.00 0.00
-68.8876 188.371 34.8774 0.00 0.00 0.00
-68.2846 186.964 33.0217 0.00 0.00 0.00
-67.6815 185.557 31.1661 0.00 0.00 0.00
-67.0784 184.15 29.3104 0.00 0.00 0.00
-66.4753 182.742 27.4548 0.00 0.00 0.00
-65.8722 181.335 25.5991 0.00 0.00 0.00
-65.2691 179.928 23.7435 0.00 0.00 0.00
-71.0813 192.579 40.4256 0.00 0.00 0.00
-70.8626 191.157 38.5513 0.00 0.00 0.00
-70.644 189.736 36.6769 0.00 0.00 0.00
-70.4253 188.314 34.8025 0.00 0.00 0.00
-70.2066 186.893 32.9281 0.00 0.00 0.00
-69.9879 185.472 31.0538 0.00 0.00 0.00
-69.7693 184.05 29.1794 0.00 0.00 0.00
-69.5506 182.629 27.305 0.00 0.00 0.00
-69.3319 181.207 25.4306 0.00 0.00 0.00
-69.1132 179.786 23.5563 0.00 0.00 0.00
-71.4563 192.578 40.4242 0.00 0.00 0.00
-71.6126 191.155 38.5484 0.00 0.00 0.00
-71.769 189.733 36.6726 0.00 0.00 0.00
-71.9253 188.31 34.7968 0.00 0.00 0.00
-72.0816 186.888 32.921 0.00 0.00 0.00
-72.2379 185.465 31.0452 0.00 0.00 0.00
-72.3942 184.043 29.1694 0.00 0.00 0.00
-72.5505 182.62 27.2937 0.00 0.00 0.00
-72.7068 181.198 25.4179 0.00 0.00 0.00
-72.8632 179.775 23.5421 0.00 0.00 0.00
-71.8424 192.59 40.4403 0.00 0.00 0.00
-72.3848 191.179 38.5806 0.00 0.00 0.00
-72.9272 189.769 36.7209 0.00 0.00 0.00
-73.4697 188.359 34.8612 0.00 0.00 0.00
-74.0121 186.949 33.0015 0.00 0.00 0.00
-74.5545 185.538 31.1418 0.00 0.00 0.00
-75.0969 184.128 29.2821 0.00 0.00 0.00
-75.6393 182.718 27.4224 0.00 0.00 0.00
-76.1817 181.308 25.5627 0.00 0.00 0.00
-76.7241 179.897 23.703 0.00 0.00 0.00
-70.3549 192.635 40.3649 0.00 0.00 0.00
-69.4099 191.27 38.4298 0.00 0.00 0.00
-68.4649 189.905 36.4947 0.00 0.00 0.00
-67.5198 188.54 34.5596 0.00 0.00 0.00
-66.5748 187.175 32.6245 0.00 0.00 0.00
-65.6297 185.81 30.6894 0.00 0.00 0.00
-64.6847 184.445 28.7543 0.00 0.00 0.00
-63.7396 183.079 26.8192 0.00 0.00 0.00
-62.7946 181.714 24.8841 0.00 0.00 0.00
-61.8495 180.349 22.949 0.00 0.00 0.00
-70.7061 192.614 40.3357 0.00 0.00 0.00
-70.1123 191.229 38.3714 0.00 0.00 0.00
-69.5184 189.843 36.4071 0.00 0.00 0.00
-68.9246 188.457 34.4428 0.00 0.00 0.00
-68.3307 187.072 32.4785 0.00 0.00 0.00
-67.7369 185.686 30.5142 0.00 0.00 0.00
-67.143 184.3 28.5499 0.00 0.00 0.00
-66.5491 182.915 26.5856 0.00 0.00 0.00
-65.9553 181.529 24.6213 0.00 0.00 0.00
-65.3614 180.143 22.657 0.00 0.00 0.00
-71.0849 192.602 40.3181 0.00 0.00 0.00
-70.8698 191.204 38.3363 0.00 0.00 0.00
-70.6547 189.806 36.3544 0.00 0.00 0.00
-70.4397 188.408 34.3726 0.00 0.00 0.00
-70.2246 187.01 32.3907 0.00 0.00 0.00
-70.0095 185.612 30.4089 0.00 0.00 0.00
-69.7944 184.214 28.427 0.00 0.00 0.00
-69.5793 182.816 26.4451 0.00 0.00 0.00
-69.3642 181.418 24.4633 0.00 0.00 0.00
-69.1491 180.019 22.4814 0.00 0.00 0.00
-71.4537 192.601 40.3168 0.00 0.00 0.00
-71.6075 191.202 38.3336 0.00 0.00 0.00
-71.7612 189.803 36.3505 0.00 0.00 0.00
-71.9149 188.404 34.3673 0.00 0.00 0.00
-72.0687 187.005 32.3841 0.00 0.00 0.00
-72.2224 185.606 30.4009 0.00 0.00 0.00
-72.3762 184.207 28.4177 0.00 0.00 0.00
-72.5299 182.808 26.4345 0.00 0.00 0.00
-72.6836 181.409 24.4514 0.00 0.00 0.00
-72.8374 180.01 22.4682 0.00 0.00 0.00
-71.834 192.612 40.3319 0.00 0.00 0.00
-72.368 191.223 38.3638 0.00 0.00 0.00
-72.9019 189.835 36.3957 0.00 0.00 0.00
-73.4359 188.447 34.4276 0.00 0.00 0.00
-73.9699 187.058 32.4595 0.00 0.00 0.00
-74.5039 185.67 30.4914 0.00 0.00 0.00
-75.0379 184.282 28.5233 0.00 0.00 0.00
-75.5719 182.893 26.5552 0.00 0.00 0.00
-76.1058 181.505 24.587 0.00 0.00 0.00
-76.6398 180.116 22.6189 0.00 0.00 0.00
-70.3686 192.655 40.245 0.00 0.00 0.00
-69.4372 191.309 38.1901 0.00 0.00 0.00
-68.5059 189.964 36.1351 0.00 0.00 0.00
-67.5745 188.619 34.0802 0.00 0.00 0.00
-66.6431 187.273 32.0252 0.00 0.00 0.00
-65.7117 185.928 29.9703 0.00 0.00 0.00
-64.7803 184.583 27.9153 0.00 0.00 0.00
-63.849 183.237 25.8604 0.00 0.00 0.00
-62.9176 181.892 23.8054 0.00 0.00 0.00
-61.9862 180.547 21.7505 0.00 0.00 0.00
-70.7158 192.637 40.2177 0.00 0.00 0.00
-70.1315 191.273 38.1353 0.00 0.00 0.00
-69.5472 189.91 36.053 0.00 0.00 0.00
-68.963 188.547 33.9707 0.00 0.00 0.00
-68.3787 187.184 31.8883 0.00 0.00 0.00
-67.7945 185.82 29.806 0.00 0.00 0.00
-67.2102 184.457 27.7237 0.00 0.00 0.00
-66.626 183.094 25.6413 0.00 0.00 0.00
-66.0417 181.731 23.559 0.00 0.00 0.00
-65.4575 180.367 21.4767 0.00 0.00 0.00
-71.0886 192.626 40.2014 0.00 0.00 0.00
-70.8773 191.252 38.1027 0.00 0.00 0.00
-70.6659 189.878 36.0041 0.00 0.00 0.00
-70.4545 188.504 33.9054 0.00 0.00 0.00
-70.2431 187.13 31.8068 0.00 0.00 0.00
-70.0318 185.756 29.7081 0.00 0.00 0.00
-69.8204 184.382 27.6095 0.00 0.00 0.00
-69.609 183.009 25.5109 0.00 0.00 0.00
-69.3976 181.635 23.4122 0.00 0.00 0.00
-69.1863 180.261 21.3136 0.00 0.00 0.00
-71.4511 192.625 40.2001 0.00 0.00 0.00
-71.6021 191.251 38.1003 0.00 0.00 0.00
-71.7532 189.876 36.0004 0.00 0.00 0.00
-71.9043 188.501 33.9005 0.00 0.00 0.00
-72.0554 187.126 31.8007 0.00 0.00 0.00
-72.2064 185.752 29.7008 0.00 0.00 0.00
-72.3575 184.377 27.6009 0.00 0.00 0.00
-72.5086 183.002 25.501 0.00 0.00 0.00
-72.6596 181.627 23.4012 0.00 0.00 0.00
-72.8107 180.253 21.3013 0.00 0.00 0.00
-71.8252 192.634 40.2141 0.00 0.00 0.00
-72.3504 191.269 38.1282 0.00 0.00 0.00
-72.8757 189.903 36.0424 0.00 0.00 0.00
-73.4009 188.538 33.9565 0.00 0.00 0.00
-73.9261 187.172 31.8706 0.00 0.00 0.00
-74.4513 185.807 29.7847 0.00 0.00 0.00
-74.9766 184.441 27.6988 0.00 0.00 0.00
-75.5018 183.075 25.613 0.00 0.00 0.00
-76.027 181.71 23.5271 0.00 0.00 0.00
-76.5522 180.344 21.4412 0.00 0.00 0.00
-70.3802 192.671 40.1393 0.00 0.00 0.00
-69.4605 191.343 37.9786 0.00 0.00 0.00
-68.5407 190.014 35.8179 0.00 0.00 0.00
-67.621 188.686 33.6572 0.00 0.00 0.00
-66.7012 187.357 31.4965 0.00 0.00 0.00
-65.7814 186.029 29.3358 0.00 0.00 0.00
-64.8617 184.7 27.1751 0.00 0.00 0.00
-63.9419 183.372 25.0143 0.00 0.00 0.00
-63.0222 182.043 22.8536 0.00 0.00 0.00
-62.1024 180.715 20.6929 0.00 0.00 0.00
-70.7238 192.656 40.1135 0.00 0.00 0.00
-70.1477 191.311 37.927 0.00 0.00 0.00
-69.5715 189.967 35.7405 0.00 0.00 0.00
-68.9953 188.622 33.554 0.00 0.00 0.00
-68.4191 187.278 31.3675 0.00 0.00 0.00
-67.843 185.934 29.181 0.00 0.00 0.00
-67.2668 184.589 26.9945 0.00 0.00 0.00
-66.6906 183.245 24.808 0.00 0.00 0.00
-66.1145 181.9 22.6215 0.00 0.00 0.00
-65.5383 180.556 20.435 0.00 0.00 0.00
-71.0917 192.646 40.0983 0.00 0.00 0.00
-70.8835 191.292 37.8965 0.00 0.00 0.00
-70.6752 189.939 35.6948 0.00 0.00 0.00
-70.4669 188.585 33.493 0.00 0.00 0.00
-70.2586 187.231 31.2913 0.00 0.00 0.00
-70.0504 185.877 29.0896 0.00 0.00 0.00
-69.8421 184.524 26.8878 0.00 0.00 0.00
-69.6338 183.17 24.6861 0.00 0.00 0.00
-69.4256 181.816 22.4844 0.00 0.00 0.00
-69.2173 180.462 20.2826 0.00 0.00 0.00
-71.4488 192.646 40.0971 0.00 0.00 0.00
-71.5977 191.291 37.8942 0.00 0.00 0.00
-71.7465 189.937 35.6914 0.00 0.00 0.00
-71.8954 188.582 33.4885 0.00 0.00 0.00
-72.0442 187.228 31.2856 0.00 0.00 0.00
-72.1931 185.873 29.0827 0.00 0.00 0.00
-72.3419 184.519 26.8798 0.00 0.00 0.00
-72.4908 183.164 24.677 0.00 0.00 0.00
-72.6396 181.81 22.4741 0.00 0.00 0.00
-72.7884 180.455 20.2712 0.00 0.00 0.00
-71.8179 192.654 40.1102 0.00 0.00 0.00
-72.3357 191.307 37.9204 0.00 0.00 0.00
-72.8536 189.961 35.7305 0.00 0.00 0.00
-73.3715 188.614 33.5407 0.00 0.00 0.00
-73.8893 187.268 31.3509 0.00 0.00 0.00
-74.4072 185.921 29.1611 0.00 0.00 0.00
-74.925 184.575 26.9713 0.00 0.00 0.00
-75.4429 183.228 24.7815 0.00 0.00 0.00
-75.9608 181.882 22.5916 0.00 0.00 0.00
-76.4786 180.536 20.4018 0.00 0.00 0.00
-70.3924 192.689 40.0238 0.00 0.00 0.00
-69.4848 191.378 37.7476 0.00 0.00 0.00
-68.5772 190.067 35.4715 0.00 0.00 0.00
-67.6696 188.756 33.1953 0.00 0.00 0.00
-66.762 187.445 30.9191 0.00 0.00 0.00
-65.8545 186.134 28.6429 0.00 0.00 0.00
-64.9469 184.823 26.3667 0.00 0.00 0.00
-64.0393 183.512 24.0905 0.00 0.00 0.00
-63.1317 182.201 21.8144 0.00 0.00 0.00
-62.2241 180.89 19.5382 0.00 0.00 0.00
-70.7322 192.675 39.9997 0.00 0.00 0.00
-70.1644 191.35 37.6994 0.00 0.00 0.00
-69.5966 190.025 35.3992 0.00 0.00 0.00
-69.0288 188.701 33.0989 0.00 0.00 0.00
-68.4611 187.376 30.7986 0.00 0.00 0.00
-67.8933 186.051 28.4983 0.00 0.00 0.00
-67.3255 184.726 26.1981 0.00 0.00 0.00
-66.7577 183.401 23.8978 0.00 0.00 0.00
-66.1899 182.076 21.5975 0.00 0.00 0.00
-65.6221 180.752 19.2972 0.00 0.00 0.00
-71.0949 192.667 39.9856 0.00 0.00 0.00
-70.8899 191.334 37.6712 0.00 0.00 0.00
-70.6848 190.001 35.3568 0.00 0.00 0.00
-70.4797 188.668 33.0424 0.00 0.00 0.00
-70.2746 187.335 30.728 0.00 0.00 0.00
-70.0696 186.002 28.4136 0.00 0.00 0.00
-69.8645 184.669 26.0992 0.00 0.00 0.00
-69.6594 183.336 23.7847 0.00 0.00 0.00
-69.4543 182.003 21.4703 0.00 0.00 0.00
-69.2493 180.67 19.1559 0.00 0.00 0.00
-71.4465 192.666 39.9845 0.00 0.00 0.00
-71.5931 191.333 37.6691 0.00 0.00 0.00
-71.7396 189.999 35.3536 0.00 0.00 0.00
-71.8862 188.666 33.0382 0.00 0.00 0.00
-72.0327 187.332 30.7227 0.00 0.00 0.00
-72.1793 185.998 28.4072 0.00 0.00 0.00
-72.3258 184.665 26.0918 0.00 0.00 0.00
-72.4724 183.331 23.7763 0.00 0.00 0.00
-72.6189 181.998 21.4608 0.00 0.00 0.00
-72.7655 180.664 19.1454 0.00 0.00 0.00
-71.8102 192.673 39.9966 0.00 0.00 0.00
-72.3205 191.347 37.6933 0.00 0.00 0.00
-72.8307 190.02 35.3899 0.00 0.00 0.00
-73.341 188.694 33.0866 0.00 0.00 0.00
-73.8512 187.367 30.7832 0.00 0.00 0.00
-74.3614 186.04 28.4798 0.00 0.00 0.00
-74.8717 184.714 26.1765 0.00 0.00 0.00
-75.3819 183.387 23.8731 0.00 0.00 0.00
-75.8922 182.06 21.5697 0.00 0.00 0.00
-76.4024 180.734 19.2664 0.00 0.00 0.00
-70.4027 192.704 39.9215 0.00 0.00 0.00
-69.5054 191.408 37.543 0.00 0.00 0.00
-68.6081 190.112 35.1644 0.00 0.00 0.00
-67.7109 188.816 32.7859 0.00 0.00 0.00
-66.8136 187.52 30.4074 0.00 0.00 0.00
-65.9163 186.224 28.0289 0.00 0.00 0.00
-65.019 184.927 25.6504 0.00 0.00 0.00
-64.1217 183.631 23.2718 0.00 0.00 0.00
-63.2244 182.335 20.8933 0.00 0.00 0.00
-62.3271 181.039 18.5148 0.00 0.00 0.00
-70.7393 192.692 39.8988 0.00 0.00 0.00
-70.1785 191.383 37.4977 0.00 0.00 0.00
-69.6177 190.075 35.0965 0.00 0.00 0.00
-69.057 188.766 32.6953 0.00 0.00 0.00
-68.4962 187.458 30.2942 0.00 0.00 0.00
-67.9355 186.149 27.893 0.00 0.00 0.00
-67.3747 184.841 25.4918 0.00 0.00 0.00
-66.814 183.533 23.0907 0.00 0.00 0.00
-66.2532 182.224 20.6895 0.00 0.00 0.00
-65.6925 180.916 18.2883 0.00 0.00 0.00
-71.0976 192.684 39.8856 0.00 0.00 0.00
-70.8952 191.369 37.4713 0.00 0.00 0.00
-70.6928 190.053 35.0569 0.00 0.00 0.00
-70.4904 188.738 32.6425 0.00 0.00 0.00
-70.288 187.422 30.2282 0.00 0.00 0.00
-70.0856 186.106 27.8138 0.00 0.00 0.00
-69.8832 184.791 25.3994 0.00 0.00 0.00
-69.6808 183.475 22.9851 0.00 0.00 0.00
-69.4784 182.159 20.5707 0.00 0.00 0.00
-69.276 180.844 18.1563 0.00 0.00 0.00
-71.4446 192.684 39.8846 0.00 0.00 0.00
-71.5893 191.368 37.4693 0.00 0.00 0.00
-71.7339 190.052 35.0539 0.00 0.00 0.00
-71.8785 188.735 32.6386 0.00 0.00 0.00
-72.0232 187.419 30.2232 0.00 0.00 0.00
-72.1678 186.103 27.8079 0.00 0.00 0.00
-72.3124 184.787 25.3925 0.00 0.00 0.00
-72.4571 183.471 22.9772 0.00 0.00 0.00
-72.6017 182.155 20.5618 0.00 0.00 0.00
-72.7463 180.838 18.1465 0.00 0.00 0.00
-71.8038 192.69 39.8959 0.00 0.00 0.00
-72.3077 191.38 37.4919 0.00 0.00 0.00
-72.8115 190.07 35.0878 0.00 0.00 0.00
-73.3154 188.76 32.6838 0.00 0.00 0.00
-73.8192 187.45 30.2797 0.00 0.00 0.00
-74.3231 186.14 27.8757 0.00 0.00 0.00
-74.8269 184.83 25.4716 0.00 0.00 0.00
-75.3308 183.52 23.0676 0.00 0.00 0.00
-75.8346 182.21 20.6635 0.00 0.00 0.00
-76.3384 180.9 18.2595 0.00 0.00 0.00
-70.4135 192.719 39.8093 0.00 0.00 0.00
-69.527 191.439 37.3186 0.00 0.00 0.00
-68.6404 190.158 34.8279 0.00 0.00 0.00
-67.7539 188.878 32.3372 0.00 0.00 0.00
-66.8674 187.597 29.8465 0.00 0.00 0.00
-65.9809 186.317 27.3558 0.00 0.00 0.00
-65.0944 185.036 24.8651 0.00 0.00 0.00
-64.2078 183.756 22.3744 0.00 0.00 0.00
-63.3213 182.475 19.8837 0.00 0.00 0.00
-62.4348 181.195 17.393 0.00 0.00 0.00
-70.7465 192.709 39.7882 0.00 0.00 0.00
-70.1931 191.417 37.2763 0.00 0.00 0.00
-69.6396 190.126 34.7645 0.00 0.00 0.00
-69.0862 188.834 32.2527 0.00 0.00 0.00
-68.5327 187.543 29.7408 0.00 0.00 0.00
-67.9793 186.252 27.229 0.00 0.00 0.00
-67.4258 184.96 24.7172 0.00 0.00 0.00
-66.8724 183.669 22.2053 0.00 0.00 0.00
-66.3189 182.377 19.6935 0.00 0.00 0.00
-65.7654 181.086 17.1816 0.00 0.00 0.00
-71.1004 192.702 39.7759 0.00 0.00 0.00
-70.9007 191.405 37.2518 0.00 0.00 0.00
-70.7011 190.107 34.7278 0.00 0.00 0.00
-70.5014 188.809 32.2037 0.00 0.00 0.00
-70.3018 187.512 29.6796 0.00 0.00 0.00
-70.1021 186.214 27.1555 0.00 0.00 0.00
-69.9025 184.916 24.6314 0.00 0.00 0.00
-69.7028 183.618 22.1074 0.00 0.00 0.00
-69.5032 182.321 19.5833 0.00 0.00 0.00
-69.3036 181.023 17.0592 0.00 0.00 0.00
-71.4427 192.702 39.775 0.00 0.00 0.00
-71.5853 191.404 37.25 0.00 0.00 0.00
-71.728 190.106 34.725 0.00 0.00 0.00
-71.8706 188.807 32.2 0.00 0.00 0.00
-72.0133 187.509 29.675 0.00 0.00 0.00
-72.1559 186.211 27.15 0.00 0.00 0.00
-72.2986 184.913 24.6251 0.00 0.00 0.00
-72.4412 183.615 22.1001 0.00 0.00 0.00
-72.5839 182.317 19.5751 0.00 0.00 0.00
-72.7266 181.018 17.0501 0.00 0.00 0.00
-71.7972 192.707 39.7855 0.00 0.00 0.00
-72.2944 191.414 37.271 0.00 0.00 0.00
-72.7917 190.122 34.7564 0.00 0.00 0.00
-73.2889 188.829 32.2419 0.00 0.00 0.00
-73.7861 187.536 29.7274 0.00 0.00 0.00
-74.2833 186.243 27.2129 0.00 0.00 0.00
-74.7806 184.951 24.6984 0.00 0.00 0.00
-75.2778 183.658 22.1838 0.00 0.00 0.00
-75.775 182.365 19.6693 0.00 0.00 0.00
-76.2722 181.072 17.1548 0.00 0.00 0.00
-70.4226 192.733 39.7095 0.00 0.00 0.00
-69.5452 191.465 37.1191 0.00 0.00 0.00
-68.6678 190.198 34.5286 0.00 0.00 0.00
-67.7903 188.93 31.9382 0.00 0.00 0.00
-66.9129 187.663 29.3477 0.00 0.00 0.00
-66.0355 186.396 26.7572 0.00 0.00 0.00
-65.1581 185.128 24.1668 0.00 0.00 0.00
-64.2807 183.861 21.5763 0.00 0.00 0.00
-63.4033 182.594 18.9859 0.00 0.00 0.00
-62.5259 181.326 16.3954 0.00 0.00 0.00
-70.7527 192.723 39.6897 0.00 0.00 0.00
-70.2053 191.446 37.0793 0.00 0.00 0.00
-69.658 190.169 34.469 0.00 0.00 0.00
-69.1107 188.892 31.8587 0.00 0.00 0.00
-68.5634 187.615 29.2484 0.00 0.00 0.00
-68.016 186.337 26.638 0.00 0.00 0.00
-67.4687 185.06 24.0277 0.00 0.00 0.00
-66.9214 183.783 21.4174 0.00 0.00 0.00
-66.3741 182.506 18.8071 0.00 0.00 0.00
-65.8267 181.229 16.1967 0.00 0.00 0.00
-71.1027 192.717 39.6782 0.00 0.00 0.00
-70.9053 191.435 37.0564 0.00 0.00 0.00
-70.708 190.152 34.4347 0.00 0.00 0.00
-70.5107 188.869 31.8129 0.00 0.00 0.00
-70.3133 187.587 29.1911 0.00 0.00 0.00
-70.116 186.304 26.5693 0.00 0.00 0.00
-69.9186 185.021 23.9475 0.00 0.00 0.00
-69.7213 183.738 21.3258 0.00 0.00 0.00
-69.524 182.456 18.704 0.00 0.00 0.00
-69.3266 181.173 16.0822 0.00 0.00 0.00
-71.441 192.717 39.6774 0.00 0.00 0.00
-71.582 191.434 37.0547 0.00 0.00 0.00
-71.723 190.151 34.4321 0.00 0.00 0.00
-71.864 188.868 31.8095 0.00 0.00 0.00
-72.005 187.584 29.1869 0.00 0.00 0.00
-72.146 186.301 26.5642 0.00 0.00 0.00
-72.287 185.018 23.9416 0.00 0.00 0.00
-72.428 183.735 21.319 0.00 0.00 0.00
-72.569 182.452 18.6963 0.00 0.00 0.00
-72.71 181.169 16.0737 0.00 0.00 0.00
-71.7917 192.722 39.6872 0.00 0.00 0.00
-72.2833 191.443 37.0743 0.00 0.00 0.00
-72.775 190.165 34.4615 0.00 0.00 0.00
-73.2667 188.887 31.8486 0.00 0.00 0.00
-73.7583 187.608 29.2358 0.00 0.00 0.00
-74.25 186.33 26.623 0.00 0.00 0.00
-74.7416 185.052 24.0101 0.00 0.00 0.00
-75.2333 183.773 21.3973 0.00 0.00 0.00
-75.725 182.495 18.7844 0.00 0.00 0.00
-76.2166 181.217 16.1716 0.00 0.00 0.00
-70.4321 192.746 39.5999 0.00 0.00 0.00
-69.5642 191.493 36.8997 0.00 0.00 0.00
-68.6963 190.239 34.1996 0.00 0.00 0.00
-67.8284 188.985 31.4994 0.00 0.00 0.00
-66.9605 187.732 28.7993 0.00 0.00 0.00
-66.0926 186.478 26.0991 0.00 0.00 0.00
-65.2247 185.225 23.399 0.00 0.00 0.00
-64.3568 183.971 20.6988 0.00 0.00 0.00
-63.4889 182.717 17.9987 0.00 0.00 0.00
-62.621 181.464 15.2986 0.00 0.00 0.00
-70.759 192.738 39.5813 0.00 0.00 0.00
-70.2181 191.475 36.8626 0.00 0.00 0.00
-69.6771 190.213 34.1439 0.00 0.00 0.00
-69.1361 188.951 31.4252 0.00 0.00 0.00
-68.5952 187.689 28.7065 0.00 0.00 0.00
-68.0542 186.426 25.9878 0.00 0.00 0.00
-67.5132 185.164 23.2691 0.00 0.00 0.00
-66.9723 183.902 20.5504 0.00 0.00 0.00
-66.4313 182.64 17.8317 0.00 0.00 0.00
-65.8903 181.377 15.113 0.00 0.00 0.00
-71.105 192.733 39.5707 0.00 0.00 0.00
-70.9101 191.466 36.8413 0.00 0.00 0.00
-70.7151 190.198 34.112 0.00 0.00 0.00
-70.5202 188.931 31.3826 0.00 0.00 0.00
-70.3252 187.664 28.6533 0.00 0.00 0.00
-70.1303 186.397 25.9239 0.00 0.00 0.00
-69.9353 185.13 23.1946 0.00 0.00 0.00
-69.7404 183.862 20.4652 0.00 0.00 0.00
-69.5454 182.595 17.7359 0.00 0.00 0.00
-69.3505 181.328 15.0066 0.00 0.00 0.00
-71.4393 192.732 39.5699 0.00 0.00 0.00
-71.5786 191.465 36.8397 0.00 0.00 0.00
-71.7179 190.197 34.1096 0.00 0.00 0.00
-71.8572 188.93 31.3795 0.00 0.00 0.00
-71.9965 187.662 28.6493 0.00 0.00 0.00
-72.1358 186.395 25.9192 0.00 0.00 0.00
-72.275 185.127 23.1891 0.00 0.00 0.00
-72.4143 183.859 20.4589 0.00 0.00 0.00
-72.5536 182.592 17.7288 0.00 0.00 0.00
-72.6929 181.324 14.9987 0.00 0.00 0.00
-71.7859 192.737 39.579 0.00 0.00 0.00
-72.2718 191.473 36.8579 0.00 0.00 0.00
-72.7577 190.21 34.1369 0.00 0.00 0.00
-73.2436 188.947 31.4158 0.00 0.00 0.00
-73.7295 187.683 28.6948 0.00 0.00 0.00
-74.2154 186.42 25.9738 0.00 0.00 0.00
-74.7013 185.157 23.2527 0.00 0.00 0.00
-75.1872 183.893 20.5317 0.00 0.00 0.00
-75.6731 182.63 17.8106 0.00 0.00 0.00
-76.159 181.367 15.0896 0.00 0.00 0.00
-70.4401 192.758 39.502 0.00 0.00 0.00
-69.5803 191.516 36.7041 0.00 0.00 0.00
-68.7204 190.274 33.9061 0.00 0.00 0.00
-67.8606 189.032 31.1082 0.00 0.00 0.00
-67.0007 187.79 28.3102 0.00 0.00 0.00
-66.1409 186.548 25.5123 0.00 0.00 0.00
-65.281 185.306 22.7143 0.00 0.00 0.00
-64.4211 184.064 19.9164 0.00 0.00 0.00
-63.5613 182.822 17.1184 0.00 0.00 0.00
-62.7014 181.58 14.3205 0.00 0.00 0.00
-70.7644 192.75 39.4846 0.00 0.00 0.00
-70.2288 191.5 36.6692 0.00 0.00 0.00
-69.6932 190.251 33.8538 0.00 0.00 0.00
-69.1575 189.001 31.0384 0.00 0.00 0.00
-68.6219 187.751 28.2229 0.00 0.00 0.00
-68.0863 186.501 25.4075 0.00 0.00 0.00
-67.5507 185.252 22.5921 0.00 0.00 0.00
-67.0151 184.002 19.7767 0.00 0.00 0.00
-66.4795 182.752 16.9613 0.00 0.00 0.00
-65.9439 181.502 14.1459 0.00 0.00 0.00
-71.107 192.746 39.4746 0.00 0.00 0.00
-70.9141 191.492 36.6492 0.00 0.00 0.00
-70.7211 190.237 33.8238 0.00 0.00 0.00
-70.5282 188.983 30.9985 0.00 0.00 0.00
-70.3352 187.729 28.1731 0.00 0.00 0.00
-70.1423 186.475 25.3477 0.00 0.00 0.00
-69.9493 185.221 22.5223 0.00 0.00 0.00
-69.7564 183.966 19.6969 0.00 0.00 0.00
-69.5634 182.712 16.8715 0.00 0.00 0.00
-69.3705 181.458 14.0461 0.00 0.00 0.00
-71.4379 192.745 39.4739 0.00 0.00 0.00
-71.5757 191.491 36.6478 0.00 0.00 0.00
-71.7136 190.236 33.8216 0.00 0.00 0.00
-71.8514 188.982 30.9955 0.00 0.00 0.00
-71.9893 187.727 28.1694 0.00 0.00 0.00
-72.1272 186.473 25.3433 0.00 0.00 0.00
-72.265 185.218 22.5171 0.00 0.00 0.00
-72.4029 183.964 19.691 0.00 0.00 0.00
-72.5407 182.709 16.8649 0.00 0.00 0.00
-72.6786 181.455 14.0387 0.00 0.00 0.00
-71.7811 192.749 39.4824 0.00 0.00 0.00
-72.2621 191.499 36.6648 0.00 0.00 0.00
-72.7432 190.248 33.8472 0.00 0.00 0.00
-73.2242 188.997 31.0296 0.00 0.00 0.00
-73.7053 187.746 28.212 0.00 0.00 0.00
-74.1863 186.496 25.3944 0.00 0.00 0.00
-74.6674 185.245 22.5768 0.00 0.00 0.00
-75.1484 183.994 19.7591 0.00 0.00 0.00
-75.6295 182.743 16.9415 0.00 0.00 0.00
-76.1105 181.493 14.1239 0.00 0.00 0.00
-70.4485 192.77 39.3943 0.00 0.00 0.00
-69.5971 191.54 36.4885 0.00 0.00 0.00
-68.7457 190.31 33.5828 0.00 0.00 0.00
-67.8942 189.081 30.677 0.00 0.00 0.00
-67.0428 187.851 27.7713 0.00 0.00 0.00
-66.1913 186.621 24.8656 0.00 0.00 0.00
-65.3399 185.391 21.9598 0.00 0.00 0.00
-64.4884 184.161 19.0541 0.00 0.00 0.00
-63.637 182.931 16.1483 0.00 0.00 0.00
-62.7855 181.701 13.2426 0.00 0.00 0.00
-70.77 192.763 39.3779 0.00 0.00 0.00
-70.2399 191.526 36.4559 0.00 0.00 0.00
-69.7098 190.29 33.5338 0.00 0.00 0.00
-69.1798 189.053 30.6117 0.00 0.00 0.00
-68.6497 187.816 27.6896 0.00 0.00 0.00
-68.1197 186.579 24.7676 0.00 0.00 0.00
-67.5896 185.342 21.8455 0.00 0.00 0.00
-67.0596 184.106 18.9234 0.00 0.00 0.00
-66.5295 182.869 16.0013 0.00 0.00 0.00
-65.9995 181.632 13.0793 0.00 0.00 0.00
-71.1091 192.759 39.3686 0.00 0.00 0.00
-70.9182 191.519 36.4373 0.00 0.00 0.00
-70.7274 190.278 33.5059 0.00 0.00 0.00
-70.5365 189.037 30.5745 0.00 0.00 0.00
-70.3456 187.796 27.6432 0.00 0.00 0.00
-70.1547 186.556 24.7118 0.00 0.00 0.00
-69.9638 185.315 21.7804 0.00 0.00 0.00
-69.773 184.074 18.8491 0.00 0.00 0.00
-69.5821 182.834 15.9177 0.00 0.00 0.00
-69.3912 181.593 12.9863 0.00 0.00 0.00
-71.4364 192.759 39.3679 0.00 0.00 0.00
-71.5728 191.518 36.4359 0.00 0.00 0.00
-71.7091 190.277 33.5038 0.00 0.00 0.00
-71.8455 189.036 30.5718 0.00 0.00 0.00
-71.9819 187.795 27.6397 0.00 0.00 0.00
-72.1182 186.554 24.7077 0.00 0.00 0.00
-72.2546 185.313 21.7756 0.00 0.00 0.00
-72.391 184.072 18.8436 0.00 0.00 0.00
-72.5274 182.831 15.9115 0.00 0.00 0.00
-72.6637 181.59 12.9795 0.00 0.00 0.00
-71.776 192.762 39.3759 0.00 0.00 0.00
-72.252 191.525 36.4518 0.00 0.00 0.00
-72.7281 190.287 33.5276 0.00 0.00 0.00
-73.2041 189.049 30.6035 0.00 0.00 0.00
-73.6801 187.812 27.6794 0.00 0.00 0.00
-74.1561 186.574 24.7553 0.00 0.00 0.00
-74.6321 185.336 21.8312 0.00 0.00 0.00
-75.1082 184.099 18.907 0.00 0.00 0.00
-75.5842 182.861 15.9829 0.00 0.00 0.00
-76.0602 181.623 13.0588 0.00 0.00 0.00
-70.4557 192.78 39.2979 0.00 0.00 0.00
-69.6113 191.561 36.2959 0.00 0.00 0.00
-68.767 190.341 33.2938 0.00 0.00 0.00
-67.9227 189.122 30.2918 0.00 0.00 0.00
-67.0784 187.902 27.2897 0.00 0.00 0.00
-66.234 186.682 24.2877 0.00 0.00 0.00
-65.3897 185.463 21.2856 0.00 0.00 0.00
-64.5454 184.243 18.2836 0.00 0.00 0.00
-63.7011 183.024 15.2815 0.00 0.00 0.00
-62.8567 181.804 12.2795 0.00 0.00 0.00
-70.7746 192.774 39.2826 0.00 0.00 0.00
-70.2493 191.548 36.2651 0.00 0.00 0.00
-69.7239 190.322 33.2477 0.00 0.00 0.00
-69.1986 189.097 30.2302 0.00 0.00 0.00
-68.6732 187.871 27.2128 0.00 0.00 0.00
-68.1479 186.645 24.1953 0.00 0.00 0.00
-67.6225 185.419 21.1779 0.00 0.00 0.00
-67.0971 184.193 18.1604 0.00 0.00 0.00
-66.5718 182.967 15.143 0.00 0.00 0.00
-66.0464 181.742 12.1255 0.00 0.00 0.00
-71.1109 192.771 39.2738 0.00 0.00 0.00
-70.9217 191.541 36.2476 0.00 0.00 0.00
-70.7326 190.312 33.2215 0.00 0.00 0.00
-70.5435 189.082 30.1953 0.00 0.00 0.00
-70.3543 187.853 27.1691 0.00 0.00 0.00
-70.1652 186.624 24.1429 0.00 0.00 0.00
-69.9761 185.394 21.1167 0.00 0.00 0.00
-69.7869 184.165 18.0906 0.00 0.00 0.00
-69.5978 182.936 15.0644 0.00 0.00 0.00
-69.4086 181.706 12.0382 0.00 0.00 0.00
-71.4351 192.77 39.2732 0.00 0.00 0.00
-71.5703 191.541 36.2464 0.00 0.00 0.00
-71.7054 190.311 33.2195 0.00 0.00 0.00
-71.8405 189.081 30.1927 0.00 0.00 0.00
-71.9756 187.852 27.1659 0.00 0.00 0.00
-72.1108 186.622 24.1391 0.00 0.00 0.00
-72.2459 185.392 21.1122 0.00 0.00 0.00
-72.381 184.163 18.0854 0.00 0.00 0.00
-72.5161 182.933 15.0586 0.00 0.00 0.00
-72.6513 181.704 12.0318 0.00 0.00 0.00
-71.7718 192.773 39.2806 0.00 0.00 0.00
-72.2436 191.547 36.2613 0.00 0.00 0.00
-72.7153 190.32 33.2419 0.00 0.00 0.00
-73.1871 189.094 30.2225 0.00 0.00 0.00
-73.6589 187.867 27.2031 0.00 0.00 0.00
-74.1307 186.64 24.1838 0.00 0.00 0.00
-74.6024 185.414 21.1644 0.00 0.00 0.00
-75.0742 184.187 18.145 0.00 0.00 0.00
-75.546 182.96 15.1256 0.00 0.00 0.00
-76.0178 181.734 12.1063 0.00 0.00 0.00
-70.4624 192.79 39.2022 0.00 0.00 0.00
-69.6248 191.58 36.1044 0.00 0.00 0.00
-68.7872 190.37 33.0067 0.00 0.00 0.00
-67.9496 189.161 29.9089 0.00 0.00 0.00
-67.112 187.951 26.8111 0.00 0.00 0.00
-66.2744 186.741 23.7133 0.00 0.00 0.00
-65.4368 185.531 20.6155 0.00 0.00 0.00
-64.5992 184.321 17.5178 0.00 0.00 0.00
-63.7616 183.111 14.42 0.00 0.00 0.00
-62.924 181.901 11.3222 0.00 0.00 0.00
-70.7791 192.784 39.1877 0.00 0.00 0.00
-70.2581 191.569 36.0754 0.00 0.00 0.00
-69.7372 190.353 32.9631 0.00 0.00 0.00
-69.2162 189.138 29.8508 0.00 0.00 0.00
-68.6953 187.922 26.7385 0.00 0.00 0.00
-68.1743 186.707 23.6262 0.00 0.00 0.00
-67.6534 185.491 20.5139 0.00 0.00 0.00
-67.1325 184.276 17.4016 0.00 0.00 0.00
-66.6115 183.06 14.2893 0.00 0.00 0.00
-66.0906 181.845 11.1769 0.00 0.00 0.00
-71.1125 192.781 39.1795 0.00 0.00 0.00
-70.925 191.563 36.059 0.00 0.00 0.00
-70.7375 190.344 32.9384 0.00 0.00 0.00
-70.55 189.125 29.8179 0.00 0.00 0.00
-70.3625 187.906 26.6974 0.00 0.00 0.00
-70.175 186.688 23.5769 0.00 0.00 0.00
-69.9875 185.469 20.4564 0.00 0.00 0.00
-69.8 184.25 17.3358 0.00 0.00 0.00
-69.6125 183.031 14.2153 0.00 0.00 0.00
-69.425 181.813 11.0948 0.00 0.00 0.00
-71.434 192.781 39.1789 0.00 0.00 0.00
-71.5679 191.562 36.0578 0.00 0.00 0.00
-71.7019 190.343 32.9366 0.00 0.00 0.00
-71.8358 189.124 29.8155 0.00 0.00 0.00
-71.9698 187.905 26.6944 0.00 0.00 0.00
-72.1037 186.686 23.5733 0.00 0.00 0.00
-72.2377 185.467 20.4521 0.00 0.00 0.00
-72.3716 184.248 17.331 0.00 0.00 0.00
-72.5056 183.029 14.2099 0.00 0.00 0.00
-72.6395 181.81 11.0888 0.00 0.00 0.00
-71.7678 192.784 39.1859 0.00 0.00 0.00
-72.2356 191.568 36.0718 0.00 0.00 0.00
-72.7034 190.351 32.9576 0.00 0.00 0.00
-73.1711 189.135 29.8435 0.00 0.00 0.00
-73.6389 187.919 26.7294 0.00 0.00 0.00
-74.1067 186.703 23.6153 0.00 0.00 0.00
-74.5745 185.486 20.5012 0.00 0.00 0.00
-75.0423 184.27 17.3871 0.00 0.00 0.00
-75.5101 183.054 14.2729 0.00 0.00 0.00
-75.9779 181.838 11.1588 0.00 0.00 0.00
-70.4695 192.8 39.0965 0.00 0.00 0.00
-69.6389 191.601 35.8929 0.00 0.00 0.00
-68.8084 190.401 32.6894 0.00 0.00 0.00
-67.9778 189.201 29.4858 0.00 0.00 0.00
-67.1473 188.002 26.2823 0.00 0.00 0.00
-66.3167 186.802 23.0788 0.00 0.00 0.00
-65.4862 185.602 19.8752 0.00 0.00 0.00
-64.6556 184.403 16.6717 0.00 0.00 0.00
-63.8251 183.203 13.4681 0.00 0.00 0.00
-62.9945 182.003 10.2646 0.00 0.00 0.00
-70.7837 192.795 39.0828 0.00 0.00 0.00
-70.2673 191.59 35.8657 0.00 0.00 0.00
-69.751 190.386 32.6485 0.00 0.00 0.00
-69.2347 189.181 29.4313 0.00 0.00 0.00
-68.7183 187.976 26.2141 0.00 0.00 0.00
-68.202 186.771 22.997 0.00 0.00 0.00
-67.6856 185.566 19.7798 0.00 0.00 0.00
-67.1693 184.362 16.5626 0.00 0.00 0.00
-66.653 183.157 13.3454 0.00 0.00 0.00
-66.1366 181.952 10.1283 0.00 0.00 0.00
-71.1142 192.792 39.0751 0.00 0.00 0.00
-70.9284 191.585 35.8503 0.00 0.00 0.00
-70.7426 190.377 32.6254 0.00 0.00 0.00
-70.5568 189.169 29.4006 0.00 0.00 0.00
-70.371 187.962 26.1757 0.00 0.00 0.00
-70.1852 186.754 22.9509 0.00 0.00 0.00
-69.9994 185.546 19.726 0.00 0.00 0.00
-69.8136 184.339 16.5011 0.00 0.00 0.00
-69.6279 183.131 13.2763 0.00 0.00 0.00
-69.4421 181.923 10.0514 0.00 0.00 0.00
-71.4327 192.792 39.0746 0.00 0.00 0.00
-71.5655 191.584 35.8492 0.00 0.00 0.00
-71.6982 190.376 32.6237 0.00 0.00 0.00
-71.8309 189.169 29.3983 0.00 0.00 0.00
-71.9637 187.961 26.1729 0.00 0.00 0.00
-72.0964 186.753 22.9475 0.00 0.00 0.00
-72.2291 185.545 19.722 0.00 0.00 0.00
-72.3619 184.337 16.4966 0.00 0.00 0.00
-72.4946 183.129 13.2712 0.00 0.00 0.00
-72.6273 181.921 10.0458 0.00 0.00 0.00
-71.7636 192.795 39.0811 0.00 0.00 0.00
-72.2272 191.589 35.8623 0.00 0.00 0.00
-72.6909 190.384 32.6434 0.00 0.00 0.00
-73.1545 189.178 29.4245 0.00 0.00 0.00
-73.6181 187.973 26.2056 0.00 0.00 0.00
-74.0817 186.767 22.9868 0.00 0.00 0.00
-74.5454 185.562 19.7679 0.00 0.00 0.00
-75.009 184.357 16.549 0.00 0.00 0.00
-75.4726 183.151 13.3302 0.00 0.00 0.00
-75.9362 181.946 10.1113 0.00 0.00 0.00
-70.4754 192.809 39.0018 0.00 0.00 0.00
-69.6509 191.618 35.7035 0.00 0.00 0.00
-68.8263 190.427 32.4053 0.00 0.00 0.00
-68.0018 189.236 29.107 0.00 0.00 0.00
-67.1772 188.045 25.8088 0.00 0.00 0.00
-66.3526 186.854 22.5105 0.00 0.00 0.00
-65.5281 185.663 19.2123 0.00 0.00 0.00
-64.7035 184.472 15.914 0.00 0.00 0.00
-63.8789 183.281 12.6158 0.00 0.00 0.00
-63.0544 182.09 9.31754 0.00 0.00 0.00
-70.7876 192.804 38.9889 0.00 0.00 0.00
-70.2751 191.609 35.6777 0.00 0.00 0.00
-69.7627 190.413 32.3666 0.00 0.00 0.00
-69.2503 189.217 29.0555 0.00 0.00 0.00
-68.7378 188.022 25.7443 0.00 0.00 0.00
-68.2254 186.826 22.4332 0.00 0.00 0.00
-67.7129 185.63 19.1221 0.00 0.00 0.00
-67.2005 184.434 15.8109 0.00 0.00 0.00
-66.6881 183.239 12.4998 0.00 0.00 0.00
-66.1756 182.043 9.18867 0.00 0.00 0.00
-71.1156 192.802 38.9816 0.00 0.00 0.00
-70.9313 191.603 35.6632 0.00 0.00 0.00
-70.7469 190.405 32.3449 0.00 0.00 0.00
-70.5626 189.207 29.0265 0.00 0.00 0.00
-70.3782 188.008 25.7081 0.00 0.00 0.00
-70.1939 186.81 22.3897 0.00 0.00 0.00
-70.0095 185.612 19.0713 0.00 0.00 0.00
-69.8252 184.414 15.7529 0.00 0.00 0.00
-69.6408 183.215 12.4346 0.00 0.00 0.00
-69.4565 182.017 9.11619 0.00 0.00 0.00
-71.4317 192.801 38.9811 0.00 0.00 0.00
-71.5634 191.603 35.6622 0.00 0.00 0.00
-71.6951 190.405 32.3433 0.00 0.00 0.00
-71.8268 189.206 29.0243 0.00 0.00 0.00
-71.9585 188.008 25.7054 0.00 0.00 0.00
-72.0902 186.809 22.3865 0.00 0.00 0.00
-72.2219 185.611 19.0676 0.00 0.00 0.00
-72.3536 184.412 15.7487 0.00 0.00 0.00
-72.4853 183.214 12.4298 0.00 0.00 0.00
-72.617 182.015 9.11086 0.00 0.00 0.00
-71.7601 192.804 38.9873 0.00 0.00 0.00
-72.2202 191.607 35.6745 0.00 0.00 0.00
-72.6803 190.411 32.3618 0.00 0.00 0.00
-73.1404 189.215 29.0491 0.00 0.00 0.00
-73.6005 188.019 25.7363 0.00 0.00 0.00
-74.0606 186.822 22.4236 0.00 0.00 0.00
-74.5207 185.626 19.1109 0.00 0.00 0.00
-74.9808 184.43 15.7981 0.00 0.00 0.00
-75.4409 183.234 12.4854 0.00 0.00 0.00
-75.901 182.037 9.17265 0.00 0.00 0.00
-70.4817 192.818 38.897 0.00 0.00 0.00
-69.6634 191.636 35.494 0.00 0.00 0.00
-68.8452 190.454 32.091 0.00 0.00 0.00
-68.0269 189.272 28.688 0.00 0.00 0.00
-67.2086 188.09 25.285 0.00 0.00 0.00
-66.3903 186.908 21.882 0.00 0.00 0.00
-65.5721 185.726 18.479 0.00 0.00 0.00
-64.7538 184.544 15.076 0.00 0.00 0.00
-63.9355 183.362 11.673 0.00 0.00 0.00
-63.1172 182.18 8.27 0.00 0.00 0.00
-70.7916 192.814 38.8849 0.00 0.00 0.00
-70.2833 191.628 35.4698 0.00 0.00 0.00
-69.7749 190.441 32.0546 0.00 0.00 0.00
-69.2666 189.255 28.6395 0.00 0.00 0.00
-68.7582 188.069 25.2244 0.00 0.00 0.00
-68.2499 186.883 21.8093 0.00 0.00 0.00
-67.7415 185.697 18.3941 0.00 0.00 0.00
-67.2331 184.511 14.979 0.00 0.00 0.00
-66.7248 183.324 11.5639 0.00 0.00 0.00
-66.2164 182.138 8.14876 0.00 0.00 0.00
-71.1171 192.811 38.8781 0.00 0.00 0.00
-70.9343 191.623 35.4562 0.00 0.00 0.00
-70.7514 190.434 32.0342 0.00 0.00 0.00
-70.5686 189.246 28.6123 0.00 0.00 0.00
-70.3857 188.057 25.1904 0.00 0.00 0.00
-70.2029 186.869 21.7684 0.00 0.00 0.00
-70.02 185.68 18.3465 0.00 0.00 0.00
-69.8372 184.492 14.9246 0.00 0.00 0.00
-69.6543 183.303 11.5027 0.00 0.00 0.00
-69.4715 182.115 8.08075 0.00 0.00 0.00
-71.4306 192.811 38.8776 0.00 0.00 0.00
-71.5613 191.623 35.4552 0.00 0.00 0.00
-71.6919 190.434 32.0327 0.00 0.00 0.00
-71.8225 189.245 28.6103 0.00 0.00 0.00
-71.9531 188.056 25.1879 0.00 0.00 0.00
-72.0838 186.868 21.7655 0.00 0.00 0.00
-72.2144 185.679 18.343 0.00 0.00 0.00
-72.345 184.49 14.9206 0.00 0.00 0.00
-72.4756 183.302 11.4982 0.00 0.00 0.00
-72.6063 182.113 8.07575 0.00 0.00 0.00
-71.7564 192.813 38.8834 0.00 0.00 0.00
-72.2128 191.627 35.4667 0.00 0.00 0.00
-72.6693 190.44 32.0501 0.00 0.00 0.00
-73.1257 189.253 28.6335 0.00 0.00 0.00
-73.5821 188.067 25.2169 0.00 0.00 0.00
-74.0385 186.88 21.8002 0.00 0.00 0.00
-74.4949 185.693 18.3836 0.00 0.00 0.00
-74.9514 184.506 14.967 0.00 0.00 0.00
-75.4078 183.32 11.5503 0.00 0.00 0.00
-75.8642 182.133 8.13372 0.00 0.00 0.00
-70.4871 192.826 38.8031 0.00 0.00 0.00
-69.6741 191.652 35.3062 0.00 0.00 0.00
-68.8612 190.477 31.8093 0.00 0.00 0.00
-68.0483 189.303 28.3124 0.00 0.00 0.00
-67.2353 188.129 24.8155 0.00 0.00 0.00
-66.4224 186.955 21.3186 0.00 0.00 0.00
-65.6095 185.78 17.8217 0.00 0.00 0.00
