-16.9 178.9 13.2 0.00 0.00 0.00
-16.9 174.6 13.7 0.00 0.00 0.00
-23.9 201.9 -14.6 0.00 0.00 0.00
-23.9 201.5 -10.3 0.00 0.00 0.00
-23.9 200.5 -6 0.00 0.00 0.00
-23.9 198.9 -2 0.00 0.00 0.00
-23.9 196.7 1.7 0.00 0.00 0.00
-23.9 193.9 5.1 0.00 0.00 0.00
-23.9 190.7 8 0.00 0.00 0.00
-23.9 187 10.3 0.00 0.00 0.00
-23.9 183.1 12.1 0.00 0.00 0.00
-23.9 178.9 13.2 0.00 0.00 0.00
-23.9 174.6 13.7 0.00 0.00 0.00
-56.6 198.7 -14.6 0.00 0.00 0.00
-56.6 198.4 -10.7 0.00 0.00 0.00
-56.6 197.5 -7 0.00 0.00 0.00
-56.6 196.1 -3.4 0.00 0.00 0.00
-56.6 194.1 -0.1 0.00 0.00 0.00
-56.6 191.7 2.9 0.00 0.00 0.00
-56.6 188.8 5.4 0.00 0.00 0.00
-56.6 185.5 7.5 0.00 0.00 0.00
-56.6 182 9.1 0.00 0.00 0.00
-56.6 178.3 10.1 0.00 0.00 0.00
-56.6 174.4 10.6 0.00 0.00 0.00
-30.9 201.9 -14.6 0.00 0.00 0.00
-30.9 201.5 -10.3 0.00 0.00 0.00
-30.9 200.5 -6 0.00 0.00 0.00
-30.9 198.9 -2 0.00 0.00 0.00
-30.9 196.7 1.7 0.00 0.00 0.00
-30.9 193.9 5.1 0.00 0.00 0.00
-30.9 190.7 8 0.00 0.00 0.00
-30.9 187 10.3 0.00 0.00 0.00
-30.9 183.1 12.1 0.00 0.00 0.00
-30.9 178.9 13.2 0.00 0.00 0.00
-30.9 174.6 13.7 0.00 0.00 0.00
-63.6 198.7 -14.6 0.00 0.00 0.00
-63.6 198.4 -10.7 0.00 0.00 0.00
-63.6 197.5 -7 0.00 0.00 0.00
-63.6 196.1 -3.4 0.00 0.00 0.00
-63.6 194.1 -0.1 0.00 0.00 0.00
-63.6 191.7 2.9 0.00 0.00 0.00
-63.6 188.8 5.4 0.00 0.00 0.00
-63.6 185.5 7.5 0.00 0.00 0.00
-63.6 182 9.1 0.00 0.00 0.00
-63.6 178.3 10.1 0.00 0.00 0.00
-63.6 174.4 10.6 0.00 0.00 0.00
-37.9 201.9 -14.6 0.00 0.00 0.00
-37.9 201.5 -10.3 0.00 0.00 0.00
-37.9 200.5 -6 0.00 0.00 0.00
-37.9 198.9 -2 0.00 0.00 0.00
-37.9 196.7 1.7 0.00 0.00 0.00
-37.9 193.9 5.1 0.00 0.00 0.00
-37.9 190.7 8 0.00 0.00 0.00
-37.9 187 10.3 0.00 0.00 0.00
-37.9 183.1 12.1 0.00 0.00 0.00
-37.9 178.9 13.2 0.00 0.00 0.00
-37.9 174.6 13.7 0.00 0.00 0.00
-70.6 198.7 -14.6 0.00 0.00 0.00
-70.6 198.4 -10.7 0.00 0.00 0.00
-70.6 197.5 -7 0.00 0.00 0.00
-70.6 196.1 -3.4 0.00 0.00 0.00
-70.6 194.1 -0.1 0.00 0.00 0.00
-70.6 191.7 2.9 0.00 0.00 0.00
-70.6 188.8 5.4 0.00 0.00 0.00
-70.6 185.5 7.5 0.00 0.00 0.00
-70.6 182 9.1 0.00 0.00 0.00
-70.6 178.3 10.1 0.00 0.00 0.00
-70.6 174.4 10.6 0.00 0.00 0.00
-44.9 201.9 -14.6 0.00 0.00 0.00
-44.9 201.5 -10.3 0.00 0.00 0.00
-44.9 200.5 -6 0.00 0.00 0.00
-44.9 198.9 -2 0.00 0.00 0.00
-44.9 196.7 1.7 0.00 0.00 0.00
-44.9 193.9 5.1 0.00 0.00 0.00
-44.9 190.7 8 0.00 0.00 0.00
-44.9 187 10.3 0.00 0.00 0.00
-44.9 183.1 12.1 0.00 0.00 0.00
-44.9 178.9 13.2 0.00 0.00 0.00
-44.9 174.6 13.7 0.00 0.00 0.00
-77.6 198.7 -14.6 0.00 0.00 0.00
-77.6 198.4 -10.7 0.00 0.00 0.00
-77.6 197.5 -7 0.00 0.00 0.00
-77.6 196.1 -3.4 0.00 0.00 0.00
-77.6 194.1 -0.1 0.00 0.00 0.00
-77.6 191.7 2.9 0.00 0.00 0.00
-77.6 188.8 5.4 0.00 0.00 0.00
-77.6 185.5 7.5 0.00 0.00 0.00
-77.6 182 9.1 0.00 0.00 0.00
-77.6 178.3 10.1 0.00 0.00 0.00
-77.6 174.4 10.6 0.00 0.00 0.00
-84.6 198.7 -14.6 0.00 0.00 0.00
-84.6 198.4 -10.7 0.00 0.00 0.00
-84.6 197.5 -7 0.00 0.00 0.00
-84.6 196.1 -3.4 0.00 0.00 0.00
-84.6 194.1 -0.1 0.00 0.00 0.00
-84.6 191.7 2.9 0.00 0.00 0.00
-84.6 188.8 5.4 0.00 0.00 0.00
-84.6 185.5 7.5 0.00 0.00 0.00
-84.6 182 9.1 0.00 0.00 0.00
-84.6 178.3 10.1 0.00 0.00 0.00
-84.6 174.4 10.6 0.00 0.00 0.00
-91.6 198.7 -14.6 0.00 0.00 0.00
-91.6 198.4 -10.7 0.00 0.00 0.00
-91.6 197.5 -7 0.00 0.00 0.00
-91.6 196.1 -3.4 0.00 0.00 0.00
-91.6 194.1 -0.1 0.00 0.00 0.00
-91.6 191.7 2.9 0.00 0.00 0.00
-91.6 188.8 5.4 0.00 0.00 0.00
-91.6 185.5 7.5 0.00 0.00 0.00
-91.6 182 9.1 0.00 0.00 0.00
-91.6 178.3 10.1 0.00 0.00 0.00
-91.6 174.4 10.6 0.00 0.00 0.00
-98.6 198.7 -14.6 0.00 0.00 0.00
-98.6 198.4 -10.7 0.00 0.00 0.00
-98.6 197.5 -7 0.00 0.00 0.00
-98.6 196.1 -3.4 0.00 0.00 0.00
-98.6 194.1 -0.1 0.00 0.00 0.00
-98.6 191.7 2.9 0.00 0.00 0.00
-98.6 188.8 5.4 0.00 0.00 0.00
-98.6 185.5 7.5 0.00 0.00 0.00
-98.6 182 9.1 0.00 0.00 0.00
-98.6 178.3 10.1 0.00 0.00 0.00
-98.6 174.4 10.6 0.00 0.00 0.00
-16.9 211.7 -18.1 0.00 0.00 0.00
-23.9 211.7 -18.1 0.00 0.00 0.00
-56.6 208.6 -18.1 0.00 0.00 0.00
-30.9 211.7 -18.1 0.00 0.00 0.00
-63.6 208.6 -18.1 0.00 0.00 0.00
-37.9 211.7 -18.1 0.00 0.00 0.00
-70.6 208.6 -18.1 0.00 0.00 0.00
-44.9 211.7 -18.1 0.00 0.00 0.00
-77.6 208.6 -18.1 0.00 0.00 0.00
-84.6 208.6 -18.1 0.00 0.00 0.00
-91.6 208.6 -18.1 0.00 0.00 0.00
-98.6 208.6 -18.1 0.00 0.00 0.00
-16.9 218.3 -21.7 0.00 0.00 0.00
-23.9 218.3 -21.7 0.00 0.00 0.00
-56.6 215.1 -21.7 0.00 0.00 0.00
-30.9 218.3 -21.7 0.00 0.00 0.00
-63.6 215.1 -21.7 0.00 0.00 0.00
-37.9 218.3 -21.7 0.00 0.00 0.00
-70.6 215.1 -21.7 0.00 0.00 0.00
-44.9 218.3 -21.7 0.00 0.00 0.00
-77.6 215.1 -21.7 0.00 0.00 0.00
-84.6 215.1 -21.7 0.00 0.00 0.00
-91.6 215.1 -21.7 0.00 0.00 0.00
-98.6 215.1 -21.7 0.00 0.00 0.00
-16.9 223.4 -25.2 0.00 0.00 0.00
-23.9 223.4 -25.2 0.00 0.00 0.00
-56.6 220.2 -25.2 0.00 0.00 0.00
-30.9 223.4 -25.2 0.00 0.00 0.00
-63.6 220.2 -25.2 0.00 0.00 0.00
-37.9 223.4 -25.2 0.00 0.00 0.00
-70.6 220.2 -25.2 0.00 0.00 0.00
-44.9 223.4 -25.2 0.00 0.00 0.00
-77.6 220.2 -25.2 0.00 0.00 0.00
-84.6 220.2 -25.2 0.00 0.00 0.00
-91.6 220.2 -25.2 0.00 0.00 0.00
-98.6 220.2 -25.2 0.00 0.00 0.00
-16.9 227.5 -28.8 0.00 0.00 0.00
-23.9 227.5 -28.8 0.00 0.00 0.00
-56.6 224.4 -28.8 0.00 0.00 0.00
-30.9 227.5 -28.8 0.00 0.00 0.00
-63.6 224.4 -28.8 0.00 0.00 0.00
-37.9 227.5 -28.8 0.00 0.00 0.00
-70.6 224.4 -28.8 0.00 0.00 0.00
-44.9 227.5 -28.8 0.00 0.00 0.00
-77.6 224.4 -28.8 0.00 0.00 0.00
-84.6 224.4 -28.8 0.00 0.00 0.00
-91.6 224.4 -28.8 0.00 0.00 0.00
-98.6 224.4 -28.8 0.00 0.00 0.00
-16.9 231 -32.3 0.00 0.00 0.00
-23.9 231 -32.3 0.00 0.00 0.00
-56.6 227.9 -32.3 0.00 0.00 0.00
-30.9 231 -32.3 0.00 0.00 0.00
-63.6 227.9 -32.3 0.00 0.00 0.00
-37.9 231 -32.3 0.00 0.00 0.00
-70.6 227.9 -32.3 0.00 0.00 0.00
-44.9 231 -32.3 0.00 0.00 0.00
-77.6 227.9 -32.3 0.00 0.00 0.00
-84.6 227.9 -32.3 0.00 0.00 0.00
-91.6 227.9 -32.3 0.00 0.00 0.00
-98.6 227.9 -32.3 0.00 0.00 0.00
-16.9 234 -35.9 0.00 0.00 0.00
-23.9 234 -35.9 0.00 0.00 0.00
-56.6 230.8 -35.9 0.00 0.00 0.00
-30.9 234 -35.9 0.00 0.00 0.00
-63.6 230.8 -35.9 0.00 0.00 0.00
-37.9 234 -35.9 0.00 0.00 0.00
-70.6 230.8 -35.9 0.00 0.00 0.00
-44.9 234 -35.9 0.00 0.00 0.00
-77.6 230.8 -35.9 0.00 0.00 0.00
-84.6 230.8 -35.9 0.00 0.00 0.00
-91.6 230.8 -35.9 0.00 0.00 0.00
-98.6 230.8 -35.9 0.00 0.00 0.00
-16.9 236.5 -39.4 0.00 0.00 0.00
-23.9 236.5 -39.4 0.00 0.00 0.00
-56.6 233.4 -39.4 0.00 0.00 0.00
-30.9 236.5 -39.4 0.00 0.00 0.00
-63.6 233.4 -39.4 0.00 0.00 0.00
-37.9 236.5 -39.4 0.00 0.00 0.00
-70.6 233.4 -39.4 0.00 0.00 0.00
-44.9 236.5 -39.4 0.00 0.00 0.00
-77.6 233.4 -39.4 0.00 0.00 0.00
-84.6 233.4 -39.4 0.00 0.00 0.00
-91.6 233.4 -39.4 0.00 0.00 0.00
-98.6 233.4 -39.4 0.00 0.00 0.00
-16.9 238.7 -43 0.00 0.00 0.00
-23.9 238.7 -43 0.00 0.00 0.00
-56.6 235.5 -43 0.00 0.00 0.00
-30.9 238.7 -43 0.00 0.00 0.00
-63.6 235.5 -43 0.00 0.00 0.00
-37.9 238.7 -43 0.00 0.00 0.00
-70.6 235.5 -43 0.00 0.00 0.00
-44.9 238.7 -43 0.00 0.00 0.00
-77.6 235.5 -43 0.00 0.00 0.00
-84.6 235.5 -43 0.00 0.00 0.00
-91.6 235.5 -43 0.00 0.00 0.00
-98.6 235.5 -43 0.00 0.00 0.00
-16.9 240.6 -46.5 0.00 0.00 0.00
-23.9 240.6 -46.5 0.00 0.00 0.00
-56.6 237.4 -46.5 0.00 0.00 0.00
-30.9 240.6 -46.5 0.00 0.00 0.00
-63.6 237.4 -46.5 0.00 0.00 0.00
-37.9 240.6 -46.5 0.00 0.00 0.00
-70.6 237.4 -46.5 0.00 0.00 0.00
-44.9 240.6 -46.5 0.00 0.00 0.00
-77.6 237.4 -46.5 0.00 0.00 0.00
-84.6 237.4 -46.5 0.00 0.00 0.00
-91.6 237.4 -46.5 0.00 0.00 0.00
-98.6 237.4 -46.5 0.00 0.00 0.00
-16.9 242.1 -50.1 0.00 0.00 0.00
-23.9 242.1 -50.1 0.00 0.00 0.00
-56.6 239 -50.1 0.00 0.00 0.00
-30.9 242.1 -50.1 0.00 0.00 0.00
-63.6 239 -50.1 0.00 0.00 0.00
-37.9 242.1 -50.1 0.00 0.00 0.00
-70.6 239 -50.1 0.00 0.00 0.00
-44.9 242.1 -50.1 0.00 0.00 0.00
-77.6 239 -50.1 0.00 0.00 0.00
-84.6 239 -50.1 0.00 0.00 0.00
-91.6 239 -50.1 0.00 0.00 0.00
-98.6 239 -50.1 0.00 0.00 0.00
-16.9 201.9 71.4 0.00 0.00 0.00
-16.9 201.5 75.7 0.00 0.00 0.00
-16.9 200.5 80 0.00 0.00 0.00
-16.9 198.9 84 0.00 0.00 0.00
-16.9 196.7 87.7 0.00 0.00 0.00
-16.9 193.9 91.1 0.00 0.00 0.00
-16.9 190.7 94 0.00 0.00 0.00
-16.9 187 96.3 0.00 0.00 0.00
-16.9 183.1 98.1 0.00 0.00 0.00
-16.9 178.9 99.2 0.00 0.00 0.00
-16.9 174.6 99.7 0.00 0.00 0.00
-98.6 198.7 71.4 0.00 0.00 0.00
-98.6 198.5 74.9 0.00 0.00 0.00
-98.6 197.7 78.3 0.00 0.00 0.00
-98.6 196.5 81.6 0.00 0.00 0.00
-98.6 194.9 84.7 0.00 0.00 0.00
-98.6 192.8 87.6 0.00 0.00 0.00
-98.6 190.4 90.1 0.00 0.00 0.00
-98.6 187.6 92.3 0.00 0.00 0.00
-98.6 184.6 94 0.00 0.00 0.00
-98.6 181.3 95.3 0.00 0.00 0.00
-98.6 177.9 96.2 0.00 0.00 0.00
-16.9 201.9 62.8 0.00 0.00 0.00
-16.9 201.5 67.1 0.00 0.00 0.00
-16.9 200.5 71.4 0.00 0.00 0.00
-16.9 198.9 75.4 0.00 0.00 0.00
-16.9 196.7 79.1 0.00 0.00 0.00
-16.9 193.9 82.5 0.00 0.00 0.00
-16.9 190.7 85.4 0.00 0.00 0.00
-16.9 187 87.7 0.00 0.00 0.00
-16.9 183.1 89.5 0.00 0.00 0.00
-16.9 178.9 90.6 0.00 0.00 0.00
-16.9 174.6 91.1 0.00 0.00 0.00
-98.6 198.7 62.8 0.00 0.00 0.00
-98.6 198.4 66.7 0.00 0.00 0.00
-98.6 197.5 70.4 0.00 0.00 0.00
-98.6 196.1 74 0.00 0.00 0.00
-98.6 194.1 77.3 0.00 0.00 0.00
-98.6 191.7 80.3 0.00 0.00 0.00
-98.6 188.8 82.8 0.00 0.00 0.00
-98.6 185.5 84.9 0.00 0.00 0.00
-98.6 182 86.5 0.00 0.00 0.00
-98.6 178.3 87.5 0.00 0.00 0.00
-98.6 174.4 88 0.00 0.00 0.00
-16.9 201.9 54.2 0.00 0.00 0.00
-16.9 201.5 58.5 0.00 0.00 0.00
-16.9 200.5 62.8 0.00 0.00 0.00
-16.9 198.9 66.8 0.00 0.00 0.00
-16.9 196.7 70.5 0.00 0.00 0.00
-16.9 193.9 73.9 0.00 0.00 0.00
-16.9 190.7 76.8 0.00 0.00 0.00
-16.9 187 79.1 0.00 0.00 0.00
-16.9 183.1 80.9 0.00 0.00 0.00
-16.9 178.9 82 0.00 0.00 0.00
-16.9 174.6 82.5 0.00 0.00 0.00
-98.6 198.7 54.2 0.00 0.00 0.00
-98.6 198.4 58.1 0.00 0.00 0.00
-98.6 197.5 61.8 0.00 0.00 0.00
-98.6 196.1 65.4 0.00 0.00 0.00
-98.6 194.1 68.7 0.00 0.00 0.00
-98.6 191.7 71.7 0.00 0.00 0.00
-98.6 188.8 74.2 0.00 0.00 0.00
-98.6 185.5 76.3 0.00 0.00 0.00
-98.6 182 77.9 0.00 0.00 0.00
-98.6 178.3 78.9 0.00 0.00 0.00
-98.6 174.4 79.4 0.00 0.00 0.00
-16.9 201.9 45.6 0.00 0.00 0.00
-16.9 201.5 49.9 0.00 0.00 0.00
-16.9 200.5 54.2 0.00 0.00 0.00
-16.9 198.9 58.2 0.00 0.00 0.00
-16.9 196.7 61.9 0.00 0.00 0.00
-16.9 193.9 65.3 0.00 0.00 0.00
-16.9 190.7 68.2 0.00 0.00 0.00
-16.9 187 70.5 0.00 0.00 0.00
-16.9 183.1 72.3 0.00 0.00 0.00
-16.9 178.9 73.4 0.00 0.00 0.00
-16.9 174.6 73.9 0.00 0.00 0.00
-98.6 198.7 45.6 0.00 0.00 0.00
-98.6 198.4 49.5 0.00 0.00 0.00
-98.6 197.5 53.2 0.00 0.00 0.00
-98.6 196.1 56.8 0.00 0.00 0.00
-98.6 194.1 60.1 0.00 0.00 0.00
-98.6 191.7 63.1 0.00 0.00 0.00
-98.6 188.8 65.6 0.00 0.00 0.00
-98.6 185.5 67.7 0.00 0.00 0.00
-98.6 182 69.3 0.00 0.00 0.00
-98.6 178.3 70.3 0.00 0.00 0.00
-98.6 174.4 70.8 0.00 0.00 0.00
-16.9 201.9 37 0.00 0.00 0.00
-16.9 201.5 41.3 0.00 0.00 0.00
-16.9 200.5 45.6 0.00 0.00 0.00
-16.9 198.9 49.6 0.00 0.00 0.00
-16.9 196.7 53.3 0.00 0.00 0.00
-16.9 193.9 56.7 0.00 0.00 0.00
-16.9 190.7 59.6 0.00 0.00 0.00
-16.9 187 61.9 0.00 0.00 0.00
-16.9 183.1 63.7 0.00 0.00 0.00
-16.9 178.9 64.8 0.00 0.00 0.00
-16.9 174.6 65.3 0.00 0.00 0.00
-98.6 198.7 37 0.00 0.00 0.00
-98.6 198.4 40.9 0.00 0.00 0.00
-98.6 197.5 44.6 0.00 0.00 0.00
-98.6 196.1 48.2 0.00 0.00 0.00
-98.6 194.1 51.5 0.00 0.00 0.00
-98.6 191.7 54.5 0.00 0.00 0.00
-98.6 188.8 57 0.00 0.00 0.00
-98.6 185.5 59.1 0.00 0.00 0.00
-98.6 182 60.7 0.00 0.00 0.00
-98.6 178.3 61.7 0.00 0.00 0.00
-98.6 174.4 62.2 0.00 0.00 0.00
-16.9 201.9 28.4 0.00 0.00 0.00
-16.9 201.5 32.7 0.00 0.00 0.00
-16.9 200.5 37 0.00 0.00 0.00
-16.9 198.9 41 0.00 0.00 0.00
-16.9 196.7 44.7 0.00 0.00 0.00
-16.9 193.9 48.1 0.00 0.00 0.00
-16.9 190.7 51 0.00 0.00 0.00
-16.9 187 53.3 0.00 0.00 0.00
-16.9 183.1 55.1 0.00 0.00 0.00
-16.9 178.9 56.2 0.00 0.00 0.00
-16.9 174.6 56.7 0.00 0.00 0.00
-98.6 198.7 28.4 0.00 0.00 0.00
-98.6 198.4 32.3 0.00 0.00 0.00
-98.6 197.5 36 0.00 0.00 0.00
-98.6 196.1 39.6 0.00 0.00 0.00
-98.6 194.1 42.9 0.00 0.00 0.00
-98.6 191.7 45.9 0.00 0.00 0.00
-98.6 188.8 48.4 0.00 0.00 0.00
-98.6 185.5 50.5 0.00 0.00 0.00
-98.6 182 52.1 0.00 0.00 0.00
-98.6 178.3 53.1 0.00 0.00 0.00
-98.6 174.4 53.6 0.00 0.00 0.00
-16.9 201.9 19.8 0.00 0.00 0.00
-16.9 201.5 24.1 0.00 0.00 0.00
-16.9 200.5 28.4 0.00 0.00 0.00
-16.9 198.9 32.4 0.00 0.00 0.00
-16.9 196.7 36.1 0.00 0.00 0.00
-16.9 193.9 39.5 0.00 0.00 0.00
-16.9 190.7 42.4 0.00 0.00 0.00
-16.9 187 44.7 0.00 0.00 0.00
-16.9 183.1 46.5 0.00 0.00 0.00
-16.9 178.9 47.6 0.00 0.00 0.00
-16.9 174.6 48.1 0.00 0.00 0.00
-98.6 198.7 19.8 0.00 0.00 0.00
-98.6 198.4 23.7 0.00 0.00 0.00
-98.6 197.5 27.4 0.00 0.00 0.00
-98.6 196.1 31 0.00 0.00 0.00
-98.6 194.1 34.3 0.00 0.00 0.00
-98.6 191.7 37.3 0.00 0.00 0.00
-98.6 188.8 39.8 0.00 0.00 0.00
-98.6 185.5 41.9 0.00 0.00 0.00
-98.6 182 43.5 0.00 0.00 0.00
-98.6 178.3 44.5 0.00 0.00 0.00
-98.6 174.4 45 0.00 0.00 0.00
-16.9 201.9 11.2 0.00 0.00 0.00
-16.9 201.5 15.5 0.00 0.00 0.00
-16.9 200.5 19.8 0.00 0.00 0.00
-16.9 198.9 23.8 0.00 0.00 0.00
-16.9 196.7 27.5 0.00 0.00 0.00
-16.9 193.9 30.9 0.00 0.00 0.00
-16.9 190.7 33.8 0.00 0.00 0.00
-16.9 187 36.1 0.00 0.00 0.00
-16.9 183.1 37.9 0.00 0.00 0.00
-16.9 178.9 39 0.00 0.00 0.00
-16.9 174.6 39.5 0.00 0.00 0.00
-98.6 198.7 11.2 0.00 0.00 0.00
-98.6 198.4 15.1 0.00 0.00 0.00
-98.6 197.5 18.8 0.00 0.00 0.00
-98.6 196.1 22.4 0.00 0.00 0.00
-98.6 194.1 25.7 0.00 0.00 0.00
-98.6 191.7 28.7 0.00 0.00 0.00
-98.6 188.8 31.2 0.00 0.00 0.00
-98.6 185.5 33.3 0.00 0.00 0.00
-98.6 182 34.9 0.00 0.00 0.00
-98.6 178.3 35.9 0.00 0.00 0.00
-98.6 174.4 36.4 0.00 0.00 0.00
-16.9 201.9 2.6 0.00 0.00 0.00
-16.9 201.5 6.9 0.00 0.00 0.00
-16.9 200.5 11.2 0.00 0.00 0.00
-16.9 198.9 15.2 0.00 0.00 0.00
-16.9 196.7 18.9 0.00 0.00 0.00
-16.9 193.9 22.3 0.00 0.00 0.00
-16.9 190.7 25.2 0.00 0.00 0.00
-16.9 187 27.5 0.00 0.00 0.00
-16.9 183.1 29.3 0.00 0.00 0.00
-16.9 178.9 30.4 0.00 0.00 0.00
-16.9 174.6 30.9 0.00 0.00 0.00
-98.6 198.7 2.6 0.00 0.00 0.00
-98.6 198.4 6.5 0.00 0.00 0.00
-98.6 197.5 10.2 0.00 0.00 0.00
-98.6 196.1 13.8 0.00 0.00 0.00
-98.6 194.1 17.1 0.00 0.00 0.00
-98.6 191.7 20.1 0.00 0.00 0.00
-98.6 188.8 22.6 0.00 0.00 0.00
-98.6 185.5 24.7 0.00 0.00 0.00
-98.6 182 26.3 0.00 0.00 0.00
-98.6 178.3 27.3 0.00 0.00 0.00
-98.6 174.4 27.8 0.00 0.00 0.00
-16.9 201.9 -6 0.00 0.00 0.00
-16.9 201.5 -1.7 0.00 0.00 0.00
-16.9 200.5 2.6 0.00 0.00 0.00
-16.9 198.9 6.6 0.00 0.00 0.00
-16.9 196.7 10.3 0.00 0.00 0.00
-16.9 193.9 13.7 0.00 0.00 0.00
-16.9 190.7 16.6 0.00 0.00 0.00
-16.9 187 18.9 0.00 0.00 0.00
-16.9 183.1 20.7 0.00 0.00 0.00
-16.9 178.9 21.8 0.00 0.00 0.00
-16.9 174.6 22.3 0.00 0.00 0.00
-98.6 198.7 -6 0.00 0.00 0.00
-98.6 198.4 -2.1 0.00 0.00 0.00
-98.6 197.5 1.6 0.00 0.00 0.00
-98.6 196.1 5.2 0.00 0.00 0.00
-98.6 194.1 8.5 0.00 0.00 0.00
-98.6 191.7 11.5 0.00 0.00 0.00
-98.6 188.8 14 0.00 0.00 0.00
-98.6 185.5 16.1 0.00 0.00 0.00
-98.6 182 17.7 0.00 0.00 0.00
-98.6 178.3 18.7 0.00 0.00 0.00
-98.6 174.4 19.2 0.00 0.00 0.00
-16.9 201.9 -14.6 0.00 0.00 0.00
-16.9 201.5 -10.3 0.00 0.00 0.00
-16.9 200.5 -6 0.00 0.00 0.00
-16.9 198.9 -2 0.00 0.00 0.00
-16.9 196.7 1.7 0.00 0.00 0.00
-16.9 193.9 5.1 0.00 0.00 0.00
-16.9 190.7 8 0.00 0.00 0.00
-16.9 187 10.3 0.00 0.00 0.00
-16.9 183.1 12.1 0.00 0.00 0.00
-16.9 178.9 13.2 0.00 0.00 0.00
-16.9 174.6 13.7 0.00 0.00 0.00
-98.6 198.7 -14.6 0.00 0.00 0.00
-98.6 198.4 -10.7 0.00 0.00 0.00
-98.6 197.5 -7 0.00 0.00 0.00
-98.6 196.1 -3.4 0.00 0.00 0.00
-98.6 194.1 -0.1 0.00 0.00 0.00
-98.6 191.7 2.9 0.00 0.00 0.00
-98.6 188.8 5.4 0.00 0.00 0.00
-98.6 185.5 7.5 0.00 0.00 0.00
-98.6 182 9.1 0.00 0.00 0.00
-98.6 178.3 10.1 0.00 0.00 0.00
-98.6 174.4 10.6 0.00 0.00 0.00
-16.9 211.7 75 0.00 0.00 0.00
-16.9 211.4 79.3 0.00 0.00 0.00
-16.9 210.4 83.5 0.00 0.00 0.00
-16.9 208.8 87.5 0.00 0.00 0.00
-16.9 206.5 91.3 0.00 0.00 0.00
-16.9 203.8 94.6 0.00 0.00 0.00
-16.9 200.5 97.5 0.00 0.00 0.00
-16.9 196.9 99.9 0.00 0.00 0.00
-16.9 192.9 101.6 0.00 0.00 0.00
-16.9 188.7 102.8 0.00 0.00 0.00
-16.9 184.4 103.3 0.00 0.00 0.00
-98.6 208.6 75 0.00 0.00 0.00
-98.6 208.3 78.8 0.00 0.00 0.00
-98.6 207.4 82.6 0.00 0.00 0.00
-98.6 205.9 86.1 0.00 0.00 0.00
-98.6 204 89.5 0.00 0.00 0.00
-98.6 201.5 92.4 0.00 0.00 0.00
-98.6 198.6 95 0.00 0.00 0.00
-98.6 195.4 97.1 0.00 0.00 0.00
-98.6 191.8 98.7 0.00 0.00 0.00
-98.6 188.1 99.7 0.00 0.00 0.00
-98.6 184.3 100.1 0.00 0.00 0.00
-16.9 211.7 65.6 0.00 0.00 0.00
-16.9 211.4 70 0.00 0.00 0.00
-16.9 210.4 74.2 0.00 0.00 0.00
-16.9 208.8 78.2 0.00 0.00 0.00
-16.9 206.5 82 0.00 0.00 0.00
-16.9 203.8 85.3 0.00 0.00 0.00
-16.9 200.5 88.2 0.00 0.00 0.00
-16.9 196.9 90.6 0.00 0.00 0.00
-16.9 192.9 92.3 0.00 0.00 0.00
-16.9 188.7 93.5 0.00 0.00 0.00
-16.9 184.4 93.9 0.00 0.00 0.00
-98.6 208.6 65.6 0.00 0.00 0.00
-98.6 208.3 69.5 0.00 0.00 0.00
-98.6 207.4 73.3 0.00 0.00 0.00
-98.6 205.9 76.8 0.00 0.00 0.00
-98.6 204 80.2 0.00 0.00 0.00
-98.6 201.5 83.1 0.00 0.00 0.00
-98.6 198.6 85.7 0.00 0.00 0.00
-98.6 195.4 87.8 0.00 0.00 0.00
-98.6 191.8 89.3 0.00 0.00 0.00
-98.6 188.1 90.4 0.00 0.00 0.00
-98.6 184.3 90.8 0.00 0.00 0.00
-16.9 211.7 56.3 0.00 0.00 0.00
-16.9 211.4 60.7 0.00 0.00 0.00
-16.9 210.4 64.9 0.00 0.00 0.00
-16.9 208.8 68.9 0.00 0.00 0.00
-16.9 206.5 72.7 0.00 0.00 0.00
-16.9 203.8 76 0.00 0.00 0.00
-16.9 200.5 78.9 0.00 0.00 0.00
-16.9 196.9 81.2 0.00 0.00 0.00
-16.9 192.9 83 0.00 0.00 0.00
-16.9 188.7 84.2 0.00 0.00 0.00
-16.9 184.4 84.6 0.00 0.00 0.00
-98.6 208.6 56.3 0.00 0.00 0.00
-98.6 208.3 60.2 0.00 0.00 0.00
-98.6 207.4 63.9 0.00 0.00 0.00
-98.6 205.9 67.5 0.00 0.00 0.00
-98.6 204 70.8 0.00 0.00 0.00
-98.6 201.5 73.8 0.00 0.00 0.00
-98.6 198.6 76.4 0.00 0.00 0.00
-98.6 195.4 78.5 0.00 0.00 0.00
-98.6 191.8 80 0.00 0.00 0.00
-98.6 188.1 81.1 0.00 0.00 0.00
-98.6 184.3 81.5 0.00 0.00 0.00
-16.9 211.7 47 0.00 0.00 0.00
-16.9 211.4 51.4 0.00 0.00 0.00
-16.9 210.4 55.6 0.00 0.00 0.00
-16.9 208.8 59.6 0.00 0.00 0.00
-16.9 206.5 63.3 0.00 0.00 0.00
-16.9 203.8 66.7 0.00 0.00 0.00
-16.9 200.5 69.6 0.00 0.00 0.00
-16.9 196.9 71.9 0.00 0.00 0.00
-16.9 192.9 73.7 0.00 0.00 0.00
-16.9 188.7 74.8 0.00 0.00 0.00
-16.9 184.4 75.3 0.00 0.00 0.00
-98.6 208.6 47 0.00 0.00 0.00
-98.6 208.3 50.9 0.00 0.00 0.00
-98.6 207.4 54.6 0.00 0.00 0.00
-98.6 205.9 58.2 0.00 0.00 0.00
-98.6 204 61.5 0.00 0.00 0.00
-98.6 201.5 64.5 0.00 0.00 0.00
-98.6 198.6 67.1 0.00 0.00 0.00
-98.6 195.4 69.2 0.00 0.00 0.00
-98.6 191.8 70.7 0.00 0.00 0.00
-98.6 188.1 71.7 0.00 0.00 0.00
-98.6 184.3 72.2 0.00 0.00 0.00
-16.9 211.7 37.7 0.00 0.00 0.00
-16.9 211.4 42.1 0.00 0.00 0.00
-16.9 210.4 46.3 0.00 0.00 0.00
-16.9 208.8 50.3 0.00 0.00 0.00
-16.9 206.5 54 0.00 0.00 0.00
-16.9 203.8 57.4 0.00 0.00 0.00
-16.9 200.5 60.3 0.00 0.00 0.00
-16.9 196.9 62.6 0.00 0.00 0.00
-16.9 192.9 64.4 0.00 0.00 0.00
-16.9 188.7 65.5 0.00 0.00 0.00
-16.9 184.4 66 0.00 0.00 0.00
-98.6 208.6 37.7 0.00 0.00 0.00
-98.6 208.3 41.6 0.00 0.00 0.00
-98.6 207.4 45.3 0.00 0.00 0.00
-98.6 205.9 48.9 0.00 0.00 0.00
-98.6 204 52.2 0.00 0.00 0.00
-98.6 201.5 55.2 0.00 0.00 0.00
-98.6 198.6 57.8 0.00 0.00 0.00
-98.6 195.4 59.8 0.00 0.00 0.00
-98.6 191.8 61.4 0.00 0.00 0.00
-98.6 188.1 62.4 0.00 0.00 0.00
-98.6 184.3 62.9 0.00 0.00 0.00
-16.9 211.7 28.4 0.00 0.00 0.00
-16.9 211.4 32.7 0.00 0.00 0.00
-16.9 210.4 37 0.00 0.00 0.00
-16.9 208.8 41 0.00 0.00 0.00
-16.9 206.5 44.7 0.00 0.00 0.00
-16.9 203.8 48.1 0.00 0.00 0.00
-16.9 200.5 51 0.00 0.00 0.00
-16.9 196.9 53.3 0.00 0.00 0.00
-16.9 192.9 55.1 0.00 0.00 0.00
-16.9 188.7 56.2 0.00 0.00 0.00
-16.9 184.4 56.7 0.00 0.00 0.00
-98.6 208.6 28.4 0.00 0.00 0.00
-98.6 208.3 32.3 0.00 0.00 0.00
-98.6 207.4 36 0.00 0.00 0.00
-98.6 205.9 39.6 0.00 0.00 0.00
-98.6 204 42.9 0.00 0.00 0.00
-98.6 201.5 45.9 0.00 0.00 0.00
-98.6 198.6 48.4 0.00 0.00 0.00
-98.6 195.4 50.5 0.00 0.00 0.00
-98.6 191.8 52.1 0.00 0.00 0.00
-98.6 188.1 53.1 0.00 0.00 0.00
-98.6 184.3 53.6 0.00 0.00 0.00
-16.9 211.7 19.1 0.00 0.00 0.00
-16.9 211.4 23.4 0.00 0.00 0.00
-16.9 210.4 27.7 0.00 0.00 0.00
-16.9 208.8 31.7 0.00 0.00 0.00
-16.9 206.5 35.4 0.00 0.00 0.00
-16.9 203.8 38.8 0.00 0.00 0.00
-16.9 200.5 41.6 0.00 0.00 0.00
-16.9 196.9 44 0.00 0.00 0.00
-16.9 192.9 45.8 0.00 0.00 0.00
-16.9 188.7 46.9 0.00 0.00 0.00
-16.9 184.4 47.4 0.00 0.00 0.00
-98.6 208.6 19.1 0.00 0.00 0.00
-98.6 208.3 22.9 0.00 0.00 0.00
-98.6 207.4 26.7 0.00 0.00 0.00
-98.6 205.9 30.3 0.00 0.00 0.00
-98.6 204 33.6 0.00 0.00 0.00
-98.6 201.5 36.6 0.00 0.00 0.00
-98.6 198.6 39.1 0.00 0.00 0.00
-98.6 195.4 41.2 0.00 0.00 0.00
-98.6 191.8 42.8 0.00 0.00 0.00
-98.6 188.1 43.8 0.00 0.00 0.00
-98.6 184.3 44.2 0.00 0.00 0.00
-16.9 211.7 9.8 0.00 0.00 0.00
-16.9 211.4 14.1 0.00 0.00 0.00
-16.9 210.4 18.3 0.00 0.00 0.00
-16.9 208.8 22.4 0.00 0.00 0.00
-16.9 206.5 26.1 0.00 0.00 0.00
-16.9 203.8 29.5 0.00 0.00 0.00
-16.9 200.5 32.3 0.00 0.00 0.00
-16.9 196.9 34.7 0.00 0.00 0.00
-16.9 192.9 36.5 0.00 0.00 0.00
-16.9 188.7 37.6 0.00 0.00 0.00
-16.9 184.4 38.1 0.00 0.00 0.00
-98.6 208.6 9.8 0.00 0.00 0.00
-98.6 208.3 13.6 0.00 0.00 0.00
-98.6 207.4 17.4 0.00 0.00 0.00
-98.6 205.9 21 0.00 0.00 0.00
-98.6 204 24.3 0.00 0.00 0.00
-98.6 201.5 27.3 0.00 0.00 0.00
-98.6 198.6 29.8 0.00 0.00 0.00
-98.6 195.4 31.9 0.00 0.00 0.00
-98.6 191.8 33.5 0.00 0.00 0.00
-98.6 188.1 34.5 0.00 0.00 0.00
-98.6 184.3 34.9 0.00 0.00 0.00
-16.9 211.7 0.5 0.00 0.00 0.00
-16.9 211.4 4.8 0.00 0.00 0.00
-16.9 210.4 9 0.00 0.00 0.00
-16.9 208.8 13.1 0.00 0.00 0.00
-16.9 206.5 16.8 0.00 0.00 0.00
-16.9 203.8 20.1 0.00 0.00 0.00
-16.9 200.5 23 0.00 0.00 0.00
-16.9 196.9 25.4 0.00 0.00 0.00
-16.9 192.9 27.2 0.00 0.00 0.00
-16.9 188.7 28.3 0.00 0.00 0.00
-16.9 184.4 28.8 0.00 0.00 0.00
-98.6 208.6 0.5 0.00 0.00 0.00
-98.6 208.3 4.3 0.00 0.00 0.00
-98.6 207.4 8.1 0.00 0.00 0.00
-98.6 205.9 11.7 0.00 0.00 0.00
-98.6 204 15 0.00 0.00 0.00
-98.6 201.5 18 0.00 0.00 0.00
-98.6 198.6 20.5 0.00 0.00 0.00
-98.6 195.4 22.6 0.00 0.00 0.00
-98.6 191.8 24.2 0.00 0.00 0.00
-98.6 188.1 25.2 0.00 0.00 0.00
-98.6 184.3 25.6 0.00 0.00 0.00
-16.9 211.7 -8.8 0.00 0.00 0.00
-16.9 211.4 -4.5 0.00 0.00 0.00
-16.9 210.4 -0.3 0.00 0.00 0.00
-16.9 208.8 3.8 0.00 0.00 0.00
-16.9 206.5 7.5 0.00 0.00 0.00
-16.9 203.8 10.8 0.00 0.00 0.00
-16.9 200.5 13.7 0.00 0.00 0.00
-16.9 196.9 16.1 0.00 0.00 0.00
-16.9 192.9 17.8 0.00 0.00 0.00
-16.9 188.7 19 0.00 0.00 0.00
-16.9 184.4 19.5 0.00 0.00 0.00
-98.6 208.6 -8.8 0.00 0.00 0.00
-98.6 208.3 -5 0.00 0.00 0.00
-98.6 207.4 -1.2 0.00 0.00 0.00
-98.6 205.9 2.4 0.00 0.00 0.00
-98.6 204 5.7 0.00 0.00 0.00
-98.6 201.5 8.6 0.00 0.00 0.00
-98.6 198.6 11.2 0.00 0.00 0.00
-98.6 195.4 13.3 0.00 0.00 0.00
-98.6 191.8 14.9 0.00 0.00 0.00
-98.6 188.1 15.9 0.00 0.00 0.00
-98.6 184.3 16.3 0.00 0.00 0.00
-16.9 218.3 78.5 0.00 0.00 0.00
-16.9 217.9 82.8 0.00 0.00 0.00
-16.9 217 87.1 0.00 0.00 0.00
-16.9 215.3 91.1 0.00 0.00 0.00
-16.9 213.1 94.8 0.00 0.00 0.00
-16.9 210.3 98.2 0.00 0.00 0.00
-16.9 207.1 101.1 0.00 0.00 0.00
-16.9 203.4 103.4 0.00 0.00 0.00
-16.9 199.5 105.2 0.00 0.00 0.00
-16.9 195.3 106.3 0.00 0.00 0.00
-16.9 191 106.8 0.00 0.00 0.00
-98.6 215.1 78.5 0.00 0.00 0.00
-98.6 214.8 82.4 0.00 0.00 0.00
-98.6 213.9 86.1 0.00 0.00 0.00
-98.6 212.5 89.7 0.00 0.00 0.00
-98.6 210.5 93 0.00 0.00 0.00
-98.6 208.1 96 0.00 0.00 0.00
-98.6 205.2 98.5 0.00 0.00 0.00
-98.6 201.9 100.6 0.00 0.00 0.00
-98.6 198.4 102.2 0.00 0.00 0.00
-98.6 194.7 103.2 0.00 0.00 0.00
-98.6 190.9 103.7 0.00 0.00 0.00
-16.9 218.3 68.5 0.00 0.00 0.00
-16.9 217.9 72.8 0.00 0.00 0.00
-16.9 217 77 0.00 0.00 0.00
-16.9 215.3 81.1 0.00 0.00 0.00
-16.9 213.1 84.8 0.00 0.00 0.00
-16.9 210.3 88.2 0.00 0.00 0.00
-16.9 207.1 91 0.00 0.00 0.00
-16.9 203.4 93.4 0.00 0.00 0.00
-16.9 199.5 95.2 0.00 0.00 0.00
-16.9 195.3 96.3 0.00 0.00 0.00
-16.9 191 96.8 0.00 0.00 0.00
-98.6 215.1 68.5 0.00 0.00 0.00
-98.6 214.8 72.3 0.00 0.00 0.00
-98.6 213.9 76.1 0.00 0.00 0.00
-98.6 212.5 79.7 0.00 0.00 0.00
-98.6 210.5 83 0.00 0.00 0.00
-98.6 208.1 86 0.00 0.00 0.00
-98.6 205.2 88.5 0.00 0.00 0.00
-98.6 201.9 90.6 0.00 0.00 0.00
-98.6 198.4 92.2 0.00 0.00 0.00
-98.6 194.7 93.2 0.00 0.00 0.00
-98.6 190.9 93.6 0.00 0.00 0.00
-16.9 218.3 58.5 0.00 0.00 0.00
-16.9 217.9 62.8 0.00 0.00 0.00
-16.9 217 67 0.00 0.00 0.00
-16.9 215.3 71.1 0.00 0.00 0.00
-16.9 213.1 74.8 0.00 0.00 0.00
-16.9 210.3 78.1 0.00 0.00 0.00
-16.9 207.1 81 0.00 0.00 0.00
-16.9 203.4 83.4 0.00 0.00 0.00
-16.9 199.5 85.1 0.00 0.00 0.00
-16.9 195.3 86.3 0.00 0.00 0.00
-16.9 191 86.8 0.00 0.00 0.00
-98.6 215.1 58.5 0.00 0.00 0.00
-98.6 214.8 62.3 0.00 0.00 0.00
-98.6 213.9 66.1 0.00 0.00 0.00
-98.6 212.5 69.7 0.00 0.00 0.00
-98.6 210.5 73 0.00 0.00 0.00
-98.6 208.1 75.9 0.00 0.00 0.00
-98.6 205.2 78.5 0.00 0.00 0.00
-98.6 201.9 80.6 0.00 0.00 0.00
-98.6 198.4 82.2 0.00 0.00 0.00
-98.6 194.7 83.2 0.00 0.00 0.00
-98.6 190.9 83.6 0.00 0.00 0.00
-16.9 218.3 48.4 0.00 0.00 0.00
-16.9 217.9 52.8 0.00 0.00 0.00
-16.9 217 57 0.00 0.00 0.00
-16.9 215.3 61 0.00 0.00 0.00
-16.9 213.1 64.8 0.00 0.00 0.00
-16.9 210.3 68.1 0.00 0.00 0.00
-16.9 207.1 71 0.00 0.00 0.00
-16.9 203.4 73.4 0.00 0.00 0.00
-16.9 199.5 75.1 0.00 0.00 0.00
-16.9 195.3 76.3 0.00 0.00 0.00
-16.9 191 76.7 0.00 0.00 0.00
-98.6 215.1 48.4 0.00 0.00 0.00
-98.6 214.8 52.3 0.00 0.00 0.00
-98.6 213.9 56.1 0.00 0.00 0.00
-98.6 212.5 59.6 0.00 0.00 0.00
-98.6 210.5 63 0.00 0.00 0.00
-98.6 208.1 65.9 0.00 0.00 0.00
-98.6 205.2 68.5 0.00 0.00 0.00
-98.6 201.9 70.6 0.00 0.00 0.00
-98.6 198.4 72.1 0.00 0.00 0.00
-98.6 194.7 73.2 0.00 0.00 0.00
-98.6 190.9 73.6 0.00 0.00 0.00
-16.9 218.3 38.4 0.00 0.00 0.00
-16.9 217.9 42.8 0.00 0.00 0.00
-16.9 217 47 0.00 0.00 0.00
-16.9 215.3 51 0.00 0.00 0.00
-16.9 213.1 54.7 0.00 0.00 0.00
-16.9 210.3 58.1 0.00 0.00 0.00
-16.9 207.1 61 0.00 0.00 0.00
-16.9 203.4 63.3 0.00 0.00 0.00
-16.9 199.5 65.1 0.00 0.00 0.00
-16.9 195.3 66.2 0.00 0.00 0.00
-16.9 191 66.7 0.00 0.00 0.00
-98.6 215.1 38.4 0.00 0.00 0.00
-98.6 214.8 42.3 0.00 0.00 0.00
-98.6 213.9 46 0.00 0.00 0.00
-98.6 212.5 49.6 0.00 0.00 0.00
-98.6 210.5 52.9 0.00 0.00 0.00
-98.6 208.1 55.9 0.00 0.00 0.00
-98.6 205.2 58.5 0.00 0.00 0.00
-98.6 201.9 60.6 0.00 0.00 0.00
-98.6 198.4 62.1 0.00 0.00 0.00
-98.6 194.7 63.1 0.00 0.00 0.00
-98.6 190.9 63.6 0.00 0.00 0.00
-16.9 218.3 28.4 0.00 0.00 0.00
-16.9 217.9 32.7 0.00 0.00 0.00
-16.9 217 37 0.00 0.00 0.00
-16.9 215.3 41 0.00 0.00 0.00
-16.9 213.1 44.7 0.00 0.00 0.00
-16.9 210.3 48.1 0.00 0.00 0.00
-16.9 207.1 51 0.00 0.00 0.00
-16.9 203.4 53.3 0.00 0.00 0.00
-16.9 199.5 55.1 0.00 0.00 0.00
-16.9 195.3 56.2 0.00 0.00 0.00
-16.9 191 56.7 0.00 0.00 0.00
-98.6 215.1 28.4 0.00 0.00 0.00
-98.6 214.8 32.3 0.00 0.00 0.00
-98.6 213.9 36 0.00 0.00 0.00
-98.6 212.5 39.6 0.00 0.00 0.00
-98.6 210.5 42.9 0.00 0.00 0.00
-98.6 208.1 45.9 0.00 0.00 0.00
-98.6 205.2 48.4 0.00 0.00 0.00
-98.6 201.9 50.5 0.00 0.00 0.00
-98.6 198.4 52.1 0.00 0.00 0.00
-98.6 194.7 53.1 0.00 0.00 0.00
-98.6 190.9 53.6 0.00 0.00 0.00
-16.9 218.3 18.4 0.00 0.00 0.00
-16.9 217.9 22.7 0.00 0.00 0.00
-16.9 217 26.9 0.00 0.00 0.00
-16.9 215.3 31 0.00 0.00 0.00
-16.9 213.1 34.7 0.00 0.00 0.00
-16.9 210.3 38.1 0.00 0.00 0.00
-16.9 207.1 40.9 0.00 0.00 0.00
-16.9 203.4 43.3 0.00 0.00 0.00
-16.9 199.5 45.1 0.00 0.00 0.00
-16.9 195.3 46.2 0.00 0.00 0.00
-16.9 191 46.7 0.00 0.00 0.00
-98.6 215.1 18.4 0.00 0.00 0.00
-98.6 214.8 22.2 0.00 0.00 0.00
-98.6 213.9 26 0.00 0.00 0.00
-98.6 212.5 29.6 0.00 0.00 0.00
-98.6 210.5 32.9 0.00 0.00 0.00
-98.6 208.1 35.9 0.00 0.00 0.00
-98.6 205.2 38.4 0.00 0.00 0.00
-98.6 201.9 40.5 0.00 0.00 0.00
-98.6 198.4 42.1 0.00 0.00 0.00
-98.6 194.7 43.1 0.00 0.00 0.00
-98.6 190.9 43.5 0.00 0.00 0.00
-16.9 218.3 8.4 0.00 0.00 0.00
-16.9 217.9 12.7 0.00 0.00 0.00
-16.9 217 16.9 0.00 0.00 0.00
-16.9 215.3 21 0.00 0.00 0.00
-16.9 213.1 24.7 0.00 0.00 0.00
-16.9 210.3 28 0.00 0.00 0.00
-16.9 207.1 30.9 0.00 0.00 0.00
-16.9 203.4 33.3 0.00 0.00 0.00
-16.9 199.5 35 0.00 0.00 0.00
-16.9 195.3 36.2 0.00 0.00 0.00
-16.9 191 36.7 0.00 0.00 0.00
-98.6 215.1 8.4 0.00 0.00 0.00
-98.6 214.8 12.2 0.00 0.00 0.00
-98.6 213.9 16 0.00 0.00 0.00
-98.6 212.5 19.6 0.00 0.00 0.00
-98.6 210.5 22.9 0.00 0.00 0.00
-98.6 208.1 25.8 0.00 0.00 0.00
-98.6 205.2 28.4 0.00 0.00 0.00
-98.6 201.9 30.5 0.00 0.00 0.00
-98.6 198.4 32.1 0.00 0.00 0.00
-98.6 194.7 33.1 0.00 0.00 0.00
-98.6 190.9 33.5 0.00 0.00 0.00
-16.9 218.3 -1.6 0.00 0.00 0.00
-16.9 217.9 2.7 0.00 0.00 0.00
-16.9 217 6.9 0.00 0.00 0.00
-16.9 215.3 10.9 0.00 0.00 0.00
-16.9 213.1 14.7 0.00 0.00 0.00
-16.9 210.3 18 0.00 0.00 0.00
-16.9 207.1 20.9 0.00 0.00 0.00
-16.9 203.4 23.3 0.00 0.00 0.00
-16.9 199.5 25 0.00 0.00 0.00
-16.9 195.3 26.2 0.00 0.00 0.00
-16.9 191 26.6 0.00 0.00 0.00
-98.6 215.1 -1.6 0.00 0.00 0.00
-98.6 214.8 2.2 0.00 0.00 0.00
-98.6 213.9 6 0.00 0.00 0.00
-98.6 212.5 9.5 0.00 0.00 0.00
-98.6 210.5 12.9 0.00 0.00 0.00
-98.6 208.1 15.8 0.00 0.00 0.00
-98.6 205.2 18.4 0.00 0.00 0.00
-98.6 201.9 20.5 0.00 0.00 0.00
-98.6 198.4 22 0.00 0.00 0.00
-98.6 194.7 23.1 0.00 0.00 0.00
-98.6 190.9 23.5 0.00 0.00 0.00
-16.9 218.3 -11.7 0.00 0.00 0.00
-16.9 217.9 -7.3 0.00 0.00 0.00
-16.9 217 -3.1 0.00 0.00 0.00
-16.9 215.3 0.9 0.00 0.00 0.00
-16.9 213.1 4.6 0.00 0.00 0.00
-16.9 210.3 8 0.00 0.00 0.00
-16.9 207.1 10.9 0.00 0.00 0.00
-16.9 203.4 13.2 0.00 0.00 0.00
-16.9 199.5 15 0.00 0.00 0.00
-16.9 195.3 16.1 0.00 0.00 0.00
-16.9 191 16.6 0.00 0.00 0.00
-98.6 215.1 -11.7 0.00 0.00 0.00
-98.6 214.8 -7.8 0.00 0.00 0.00
-98.6 213.9 -4.1 0.00 0.00 0.00
-98.6 212.5 -0.5 0.00 0.00 0.00
-98.6 210.5 2.8 0.00 0.00 0.00
-98.6 208.1 5.8 0.00 0.00 0.00
-98.6 205.2 8.4 0.00 0.00 0.00
-98.6 201.9 10.5 0.00 0.00 0.00
-98.6 198.4 12 0.00 0.00 0.00
-98.6 194.7 13 0.00 0.00 0.00
-98.6 190.9 13.5 0.00 0.00 0.00
-16.9 218.3 -21.7 0.00 0.00 0.00
-16.9 217.9 -17.4 0.00 0.00 0.00
-16.9 217 -13.1 0.00 0.00 0.00
-16.9 215.3 -9.1 0.00 0.00 0.00
-16.9 213.1 -5.4 0.00 0.00 0.00
-16.9 210.3 -2 0.00 0.00 0.00
-16.9 207.1 0.9 0.00 0.00 0.00
-16.9 203.4 3.2 0.00 0.00 0.00
-16.9 199.5 5 0.00 0.00 0.00
-16.9 195.3 6.1 0.00 0.00 0.00
-16.9 191 6.6 0.00 0.00 0.00
-98.6 215.1 -21.7 0.00 0.00 0.00
-98.6 214.8 -17.8 0.00 0.00 0.00
-98.6 213.9 -14.1 0.00 0.00 0.00
-98.6 212.5 -10.5 0.00 0.00 0.00
-98.6 210.5 -7.2 0.00 0.00 0.00
-98.6 208.1 -4.2 0.00 0.00 0.00
-98.6 205.2 -1.7 0.00 0.00 0.00
-98.6 201.9 0.4 0.00 0.00 0.00
-98.6 198.4 2 0.00 0.00 0.00
-98.6 194.7 3 0.00 0.00 0.00
-98.6 190.9 3.5 0.00 0.00 0.00
-16.9 223.4 82.1 0.00 0.00 0.00
-16.9 223 86.4 0.00 0.00 0.00
-16.9 222 90.6 0.00 0.00 0.00
-16.9 220.4 94.6 0.00 0.00 0.00
-16.9 218.2 98.4 0.00 0.00 0.00
-16.9 215.4 101.7 0.00 0.00 0.00
-16.9 212.2 104.6 0.00 0.00 0.00
-16.9 208.5 107 0.00 0.00 0.00
-16.9 204.6 108.7 0.00 0.00 0.00
-16.9 200.4 109.9 0.00 0.00 0.00
-16.9 196 110.4 0.00 0.00 0.00
-98.6 220.2 82.1 0.00 0.00 0.00
-98.6 219.9 85.9 0.00 0.00 0.00
-98.6 219 89.7 0.00 0.00 0.00
-98.6 217.6 93.2 0.00 0.00 0.00
-98.6 215.6 96.6 0.00 0.00 0.00
-98.6 213.1 99.5 0.00 0.00 0.00
-98.6 210.3 102.1 0.00 0.00 0.00
-98.6 207 104.2 0.00 0.00 0.00
-98.6 203.5 105.8 0.00 0.00 0.00
-98.6 199.8 106.8 0.00 0.00 0.00
-98.6 195.9 107.2 0.00 0.00 0.00
-16.9 223.4 71.3 0.00 0.00 0.00
-16.9 223 75.7 0.00 0.00 0.00
-16.9 222 79.9 0.00 0.00 0.00
-16.9 220.4 83.9 0.00 0.00 0.00
-16.9 218.2 87.6 0.00 0.00 0.00
-16.9 215.4 91 0.00 0.00 0.00
-16.9 212.2 93.9 0.00 0.00 0.00
-16.9 208.5 96.2 0.00 0.00 0.00
-16.9 204.6 98 0.00 0.00 0.00
-16.9 200.4 99.1 0.00 0.00 0.00
-16.9 196 99.6 0.00 0.00 0.00
-98.6 220.2 71.3 0.00 0.00 0.00
-98.6 219.9 75.2 0.00 0.00 0.00
-98.6 219 78.9 0.00 0.00 0.00
-98.6 217.6 82.5 0.00 0.00 0.00
-98.6 215.6 85.8 0.00 0.00 0.00
-98.6 213.1 88.8 0.00 0.00 0.00
-98.6 210.3 91.4 0.00 0.00 0.00
-98.6 207 93.5 0.00 0.00 0.00
-98.6 203.5 95 0.00 0.00 0.00
-98.6 199.8 96 0.00 0.00 0.00
-98.6 195.9 96.5 0.00 0.00 0.00
-16.9 223.4 60.6 0.00 0.00 0.00
-16.9 223 64.9 0.00 0.00 0.00
-16.9 222 69.2 0.00 0.00 0.00
-16.9 220.4 73.2 0.00 0.00 0.00
-16.9 218.2 76.9 0.00 0.00 0.00
-16.9 215.4 80.3 0.00 0.00 0.00
-16.9 212.2 83.1 0.00 0.00 0.00
-16.9 208.5 85.5 0.00 0.00 0.00
-16.9 204.6 87.3 0.00 0.00 0.00
-16.9 200.4 88.4 0.00 0.00 0.00
-16.9 196 88.9 0.00 0.00 0.00
-98.6 220.2 60.6 0.00 0.00 0.00
-98.6 219.9 64.4 0.00 0.00 0.00
-98.6 219 68.2 0.00 0.00 0.00
-98.6 217.6 71.8 0.00 0.00 0.00
-98.6 215.6 75.1 0.00 0.00 0.00
-98.6 213.1 78.1 0.00 0.00 0.00
-98.6 210.3 80.6 0.00 0.00 0.00
-98.6 207 82.7 0.00 0.00 0.00
-98.6 203.5 84.3 0.00 0.00 0.00
-98.6 199.8 85.3 0.00 0.00 0.00
-98.6 195.9 85.7 0.00 0.00 0.00
-16.9 223.4 49.9 0.00 0.00 0.00
-16.9 223 54.2 0.00 0.00 0.00
-16.9 222 58.4 0.00 0.00 0.00
-16.9 220.4 62.5 0.00 0.00 0.00
-16.9 218.2 66.2 0.00 0.00 0.00
-16.9 215.4 69.5 0.00 0.00 0.00
-16.9 212.2 72.4 0.00 0.00 0.00
-16.9 208.5 74.8 0.00 0.00 0.00
-16.9 204.6 76.5 0.00 0.00 0.00
-16.9 200.4 77.7 0.00 0.00 0.00
-16.9 196 78.2 0.00 0.00 0.00
-98.6 220.2 49.9 0.00 0.00 0.00
-98.6 219.9 53.7 0.00 0.00 0.00
-98.6 219 57.5 0.00 0.00 0.00
-98.6 217.6 61.1 0.00 0.00 0.00
-98.6 215.6 64.4 0.00 0.00 0.00
-98.6 213.1 67.3 0.00 0.00 0.00
-98.6 210.3 69.9 0.00 0.00 0.00
-98.6 207 72 0.00 0.00 0.00
-98.6 203.5 73.6 0.00 0.00 0.00
-98.6 199.8 74.6 0.00 0.00 0.00
-98.6 195.9 75 0.00 0.00 0.00
-16.9 223.4 39.1 0.00 0.00 0.00
-16.9 223 43.5 0.00 0.00 0.00
-16.9 222 47.7 0.00 0.00 0.00
-16.9 220.4 51.7 0.00 0.00 0.00
-16.9 218.2 55.5 0.00 0.00 0.00
-16.9 215.4 58.8 0.00 0.00 0.00
-16.9 212.2 61.7 0.00 0.00 0.00
-16.9 208.5 64 0.00 0.00 0.00
-16.9 204.6 65.8 0.00 0.00 0.00
-16.9 200.4 67 0.00 0.00 0.00
-16.9 196 67.4 0.00 0.00 0.00
-98.6 220.2 39.1 0.00 0.00 0.00
-98.6 219.9 43 0.00 0.00 0.00
-98.6 219 46.7 0.00 0.00 0.00
-98.6 217.6 50.3 0.00 0.00 0.00
-98.6 215.6 53.6 0.00 0.00 0.00
-98.6 213.1 56.6 0.00 0.00 0.00
-98.6 210.3 59.2 0.00 0.00 0.00
-98.6 207 61.3 0.00 0.00 0.00
-98.6 203.5 62.8 0.00 0.00 0.00
-98.6 199.8 63.9 0.00 0.00 0.00
-98.6 195.9 64.3 0.00 0.00 0.00
-16.9 223.4 28.4 0.00 0.00 0.00
-16.9 223 32.7 0.00 0.00 0.00
-16.9 222 37 0.00 0.00 0.00
-16.9 220.4 41 0.00 0.00 0.00
-16.9 218.2 44.7 0.00 0.00 0.00
-16.9 215.4 48.1 0.00 0.00 0.00
-16.9 212.2 51 0.00 0.00 0.00
-16.9 208.5 53.3 0.00 0.00 0.00
-16.9 204.6 55.1 0.00 0.00 0.00
-16.9 200.4 56.2 0.00 0.00 0.00
-16.9 196 56.7 0.00 0.00 0.00
-98.6 220.2 28.4 0.00 0.00 0.00
-98.6 219.9 32.3 0.00 0.00 0.00
-98.6 219 36 0.00 0.00 0.00
-98.6 217.6 39.6 0.00 0.00 0.00
-98.6 215.6 42.9 0.00 0.00 0.00
-98.6 213.1 45.9 0.00 0.00 0.00
-98.6 210.3 48.4 0.00 0.00 0.00
-98.6 207 50.5 0.00 0.00 0.00
-98.6 203.5 52.1 0.00 0.00 0.00
-98.6 199.8 53.1 0.00 0.00 0.00
-98.6 195.9 53.6 0.00 0.00 0.00
-16.9 223.4 17.7 0.00 0.00 0.00
-16.9 223 22 0.00 0.00 0.00
-16.9 222 26.2 0.00 0.00 0.00
-16.9 220.4 30.3 0.00 0.00 0.00
-16.9 218.2 34 0.00 0.00 0.00
-16.9 215.4 37.3 0.00 0.00 0.00
-16.9 212.2 40.2 0.00 0.00 0.00
-16.9 208.5 42.6 0.00 0.00 0.00
-16.9 204.6 44.4 0.00 0.00 0.00
-16.9 200.4 45.5 0.00 0.00 0.00
-16.9 196 46 0.00 0.00 0.00
-98.6 220.2 17.7 0.00 0.00 0.00
-98.6 219.9 21.5 0.00 0.00 0.00
-98.6 219 25.3 0.00 0.00 0.00
-98.6 217.6 28.9 0.00 0.00 0.00
-98.6 215.6 32.2 0.00 0.00 0.00
-98.6 213.1 35.2 0.00 0.00 0.00
-98.6 210.3 37.7 0.00 0.00 0.00
-98.6 207 39.8 0.00 0.00 0.00
-98.6 203.5 41.4 0.00 0.00 0.00
-98.6 199.8 42.4 0.00 0.00 0.00
-98.6 195.9 42.8 0.00 0.00 0.00
-16.9 223.4 6.9 0.00 0.00 0.00
-16.9 223 11.3 0.00 0.00 0.00
-16.9 222 15.5 0.00 0.00 0.00
-16.9 220.4 19.5 0.00 0.00 0.00
-16.9 218.2 23.3 0.00 0.00 0.00
-16.9 215.4 26.6 0.00 0.00 0.00
-16.9 212.2 29.5 0.00 0.00 0.00
-16.9 208.5 31.9 0.00 0.00 0.00
-16.9 204.6 33.6 0.00 0.00 0.00
-16.9 200.4 34.8 0.00 0.00 0.00
-16.9 196 35.2 0.00 0.00 0.00
-98.6 220.2 6.9 0.00 0.00 0.00
-98.6 219.9 10.8 0.00 0.00 0.00
-98.6 219 14.6 0.00 0.00 0.00
-98.6 217.6 18.1 0.00 0.00 0.00
-98.6 215.6 21.5 0.00 0.00 0.00
-98.6 213.1 24.4 0.00 0.00 0.00
-98.6 210.3 27 0.00 0.00 0.00
-98.6 207 29.1 0.00 0.00 0.00
-98.6 203.5 30.6 0.00 0.00 0.00
-98.6 199.8 31.7 0.00 0.00 0.00
-98.6 195.9 32.1 0.00 0.00 0.00
-16.9 223.4 -3.8 0.00 0.00 0.00
-16.9 223 0.6 0.00 0.00 0.00
-16.9 222 4.8 0.00 0.00 0.00
-16.9 220.4 8.8 0.00 0.00 0.00
-16.9 218.2 12.5 0.00 0.00 0.00
-16.9 215.4 15.9 0.00 0.00 0.00
-16.9 212.2 18.8 0.00 0.00 0.00
-16.9 208.5 21.1 0.00 0.00 0.00
-16.9 204.6 22.9 0.00 0.00 0.00
-16.9 200.4 24 0.00 0.00 0.00
-16.9 196 24.5 0.00 0.00 0.00
-98.6 220.2 -3.8 0.00 0.00 0.00
-98.6 219.9 0.1 0.00 0.00 0.00
-98.6 219 3.8 0.00 0.00 0.00
-98.6 217.6 7.4 0.00 0.00 0.00
-98.6 215.6 10.7 0.00 0.00 0.00
-98.6 213.1 13.7 0.00 0.00 0.00
-98.6 210.3 16.3 0.00 0.00 0.00
-98.6 207 18.3 0.00 0.00 0.00
-98.6 203.5 19.9 0.00 0.00 0.00
-98.6 199.8 20.9 0.00 0.00 0.00
-98.6 195.9 21.4 0.00 0.00 0.00
-16.9 223.4 -14.5 0.00 0.00 0.00
-16.9 223 -10.2 0.00 0.00 0.00
-16.9 222 -6 0.00 0.00 0.00
-16.9 220.4 -1.9 0.00 0.00 0.00
-16.9 218.2 1.8 0.00 0.00 0.00
-16.9 215.4 5.2 0.00 0.00 0.00
-16.9 212.2 8 0.00 0.00 0.00
-16.9 208.5 10.4 0.00 0.00 0.00
-16.9 204.6 12.2 0.00 0.00 0.00
-16.9 200.4 13.3 0.00 0.00 0.00
-16.9 196 13.8 0.00 0.00 0.00
-98.6 220.2 -14.5 0.00 0.00 0.00
-98.6 219.9 -10.7 0.00 0.00 0.00
-98.6 219 -6.9 0.00 0.00 0.00
-98.6 217.6 -3.3 0.00 0.00 0.00
-98.6 215.6 -0 0.00 0.00 0.00
-98.6 213.1 3 0.00 0.00 0.00
-98.6 210.3 5.5 0.00 0.00 0.00
-98.6 207 7.6 0.00 0.00 0.00
-98.6 203.5 9.2 0.00 0.00 0.00
-98.6 199.8 10.2 0.00 0.00 0.00
-98.6 195.9 10.6 0.00 0.00 0.00
-16.9 227.5 85.6 0.00 0.00 0.00
-16.9 227.2 89.9 0.00 0.00 0.00
-16.9 226.2 94.2 0.00 0.00 0.00
-16.9 224.6 98.2 0.00 0.00 0.00
-16.9 222.3 101.9 0.00 0.00 0.00
-16.9 219.6 105.3 0.00 0.00 0.00
-16.9 216.3 108.2 0.00 0.00 0.00
-16.9 212.7 110.5 0.00 0.00 0.00
-16.9 208.7 112.3 0.00 0.00 0.00
-16.9 204.5 113.4 0.00 0.00 0.00
-16.9 200.2 113.9 0.00 0.00 0.00
-98.6 224.4 85.6 0.00 0.00 0.00
-98.6 224.1 89.5 0.00 0.00 0.00
-98.6 223.2 93.2 0.00 0.00 0.00
-98.6 221.7 96.8 0.00 0.00 0.00
-98.6 219.8 100.1 0.00 0.00 0.00
-98.6 217.3 103.1 0.00 0.00 0.00
-98.6 214.4 105.6 0.00 0.00 0.00
-98.6 211.2 107.7 0.00 0.00 0.00
-98.6 207.6 109.3 0.00 0.00 0.00
-98.6 203.9 110.3 0.00 0.00 0.00
-98.6 200.1 110.8 0.00 0.00 0.00
-16.9 227.5 74.2 0.00 0.00 0.00
-16.9 227.2 78.5 0.00 0.00 0.00
-16.9 226.2 82.7 0.00 0.00 0.00
-16.9 224.6 86.8 0.00 0.00 0.00
-16.9 222.3 90.5 0.00 0.00 0.00
-16.9 219.6 93.8 0.00 0.00 0.00
-16.9 216.3 96.7 0.00 0.00 0.00
-16.9 212.7 99.1 0.00 0.00 0.00
-16.9 208.7 100.8 0.00 0.00 0.00
-16.9 204.5 102 0.00 0.00 0.00
-16.9 200.2 102.5 0.00 0.00 0.00
-98.6 224.4 74.2 0.00 0.00 0.00
-98.6 224.1 78 0.00 0.00 0.00
-98.6 223.2 81.8 0.00 0.00 0.00
-98.6 221.7 85.4 0.00 0.00 0.00
-98.6 219.8 88.7 0.00 0.00 0.00
-98.6 217.3 91.6 0.00 0.00 0.00
-98.6 214.4 94.2 0.00 0.00 0.00
-98.6 211.2 96.3 0.00 0.00 0.00
-98.6 207.6 97.9 0.00 0.00 0.00
-98.6 203.9 98.9 0.00 0.00 0.00
-98.6 200.1 99.3 0.00 0.00 0.00
-16.9 227.5 62.7 0.00 0.00 0.00
-16.9 227.2 67.1 0.00 0.00 0.00
-16.9 226.2 71.3 0.00 0.00 0.00
-16.9 224.6 75.3 0.00 0.00 0.00
-16.9 222.3 79 0.00 0.00 0.00
-16.9 219.6 82.4 0.00 0.00 0.00
-16.9 216.3 85.3 0.00 0.00 0.00
-16.9 212.7 87.6 0.00 0.00 0.00
-16.9 208.7 89.4 0.00 0.00 0.00
-16.9 204.5 90.5 0.00 0.00 0.00
-16.9 200.2 91 0.00 0.00 0.00
-98.6 224.4 62.7 0.00 0.00 0.00
-98.6 224.1 66.6 0.00 0.00 0.00
-98.6 223.2 70.3 0.00 0.00 0.00
-98.6 221.7 73.9 0.00 0.00 0.00
-98.6 219.8 77.2 0.00 0.00 0.00
-98.6 217.3 80.2 0.00 0.00 0.00
-98.6 214.4 82.8 0.00 0.00 0.00
-98.6 211.2 84.9 0.00 0.00 0.00
-98.6 207.6 86.4 0.00 0.00 0.00
-98.6 203.9 87.4 0.00 0.00 0.00
-98.6 200.1 87.9 0.00 0.00 0.00
-16.9 227.5 51.3 0.00 0.00 0.00
-16.9 227.2 55.6 0.00 0.00 0.00
-16.9 226.2 59.8 0.00 0.00 0.00
-16.9 224.6 63.9 0.00 0.00 0.00
-16.9 222.3 67.6 0.00 0.00 0.00
-16.9 219.6 71 0.00 0.00 0.00
-16.9 216.3 73.8 0.00 0.00 0.00
-16.9 212.7 76.2 0.00 0.00 0.00
-16.9 208.7 78 0.00 0.00 0.00
-16.9 204.5 79.1 0.00 0.00 0.00
-16.9 200.2 79.6 0.00 0.00 0.00
-98.6 224.4 51.3 0.00 0.00 0.00
-98.6 224.1 55.1 0.00 0.00 0.00
-98.6 223.2 58.9 0.00 0.00 0.00
-98.6 221.7 62.5 0.00 0.00 0.00
-98.6 219.8 65.8 0.00 0.00 0.00
-98.6 217.3 68.8 0.00 0.00 0.00
-98.6 214.4 71.3 0.00 0.00 0.00
-98.6 211.2 73.4 0.00 0.00 0.00
-98.6 207.6 75 0.00 0.00 0.00
-98.6 203.9 76 0.00 0.00 0.00
-98.6 200.1 76.4 0.00 0.00 0.00
-16.9 227.5 39.8 0.00 0.00 0.00
-16.9 227.2 44.2 0.00 0.00 0.00
-16.9 226.2 48.4 0.00 0.00 0.00
-16.9 224.6 52.4 0.00 0.00 0.00
-16.9 222.3 56.2 0.00 0.00 0.00
-16.9 219.6 59.5 0.00 0.00 0.00
-16.9 216.3 62.4 0.00 0.00 0.00
-16.9 212.7 64.8 0.00 0.00 0.00
-16.9 208.7 66.5 0.00 0.00 0.00
-16.9 204.5 67.7 0.00 0.00 0.00
-16.9 200.2 68.1 0.00 0.00 0.00
-98.6 224.4 39.8 0.00 0.00 0.00
-98.6 224.1 43.7 0.00 0.00 0.00
-98.6 223.2 47.5 0.00 0.00 0.00
-98.6 221.7 51 0.00 0.00 0.00
-98.6 219.8 54.4 0.00 0.00 0.00
-98.6 217.3 57.3 0.00 0.00 0.00
-98.6 214.4 59.9 0.00 0.00 0.00
-98.6 211.2 62 0.00 0.00 0.00
-98.6 207.6 63.5 0.00 0.00 0.00
-98.6 203.9 64.6 0.00 0.00 0.00
-98.6 200.1 65 0.00 0.00 0.00
-16.9 227.5 28.4 0.00 0.00 0.00
-16.9 227.2 32.7 0.00 0.00 0.00
-16.9 226.2 37 0.00 0.00 0.00
-16.9 224.6 41 0.00 0.00 0.00
-16.9 222.3 44.7 0.00 0.00 0.00
-16.9 219.6 48.1 0.00 0.00 0.00
-16.9 216.3 51 0.00 0.00 0.00
-16.9 212.7 53.3 0.00 0.00 0.00
-16.9 208.7 55.1 0.00 0.00 0.00
-16.9 204.5 56.2 0.00 0.00 0.00
-16.9 200.2 56.7 0.00 0.00 0.00
-98.6 224.4 28.4 0.00 0.00 0.00
-98.6 224.1 32.3 0.00 0.00 0.00
-98.6 223.2 36 0.00 0.00 0.00
-98.6 221.7 39.6 0.00 0.00 0.00
-98.6 219.8 42.9 0.00 0.00 0.00
-98.6 217.3 45.9 0.00 0.00 0.00
-98.6 214.4 48.4 0.00 0.00 0.00
-98.6 211.2 50.5 0.00 0.00 0.00
-98.6 207.6 52.1 0.00 0.00 0.00
-98.6 203.9 53.1 0.00 0.00 0.00
-98.6 200.1 53.6 0.00 0.00 0.00
-16.9 227.5 17 0.00 0.00 0.00
-16.9 227.2 21.3 0.00 0.00 0.00
-16.9 226.2 25.5 0.00 0.00 0.00
-16.9 224.6 29.6 0.00 0.00 0.00
-16.9 222.3 33.3 0.00 0.00 0.00
-16.9 219.6 36.6 0.00 0.00 0.00
-16.9 216.3 39.5 0.00 0.00 0.00
-16.9 212.7 41.9 0.00 0.00 0.00
-16.9 208.7 43.6 0.00 0.00 0.00
-16.9 204.5 44.8 0.00 0.00 0.00
-16.9 200.2 45.3 0.00 0.00 0.00
-98.6 224.4 17 0.00 0.00 0.00
-98.6 224.1 20.8 0.00 0.00 0.00
-98.6 223.2 24.6 0.00 0.00 0.00
-98.6 221.7 28.2 0.00 0.00 0.00
-98.6 219.8 31.5 0.00 0.00 0.00
-98.6 217.3 34.4 0.00 0.00 0.00
-98.6 214.4 37 0.00 0.00 0.00
-98.6 211.2 39.1 0.00 0.00 0.00
-98.6 207.6 40.7 0.00 0.00 0.00
-98.6 203.9 41.7 0.00 0.00 0.00
-98.6 200.1 42.1 0.00 0.00 0.00
-16.9 227.5 5.5 0.00 0.00 0.00
-16.9 227.2 9.9 0.00 0.00 0.00
-16.9 226.2 14.1 0.00 0.00 0.00
-16.9 224.6 18.1 0.00 0.00 0.00
-16.9 222.3 21.8 0.00 0.00 0.00
-16.9 219.6 25.2 0.00 0.00 0.00
-16.9 216.3 28.1 0.00 0.00 0.00
-16.9 212.7 30.4 0.00 0.00 0.00
-16.9 208.7 32.2 0.00 0.00 0.00
-16.9 204.5 33.3 0.00 0.00 0.00
-16.9 200.2 33.8 0.00 0.00 0.00
-98.6 224.4 5.5 0.00 0.00 0.00
-98.6 224.1 9.4 0.00 0.00 0.00
-98.6 223.2 13.1 0.00 0.00 0.00
-98.6 221.7 16.7 0.00 0.00 0.00
-98.6 219.8 20 0.00 0.00 0.00
-98.6 217.3 23 0.00 0.00 0.00
-98.6 214.4 25.6 0.00 0.00 0.00
-98.6 211.2 27.7 0.00 0.00 0.00
-98.6 207.6 29.2 0.00 0.00 0.00
-98.6 203.9 30.2 0.00 0.00 0.00
-98.6 200.1 30.7 0.00 0.00 0.00
-16.9 227.5 -5.9 0.00 0.00 0.00
-16.9 227.2 -1.6 0.00 0.00 0.00
-16.9 226.2 2.6 0.00 0.00 0.00
-16.9 224.6 6.7 0.00 0.00 0.00
-16.9 222.3 10.4 0.00 0.00 0.00
-16.9 219.6 13.8 0.00 0.00 0.00
-16.9 216.3 16.6 0.00 0.00 0.00
-16.9 212.7 19 0.00 0.00 0.00
-16.9 208.7 20.8 0.00 0.00 0.00
-16.9 204.5 21.9 0.00 0.00 0.00
-16.9 200.2 22.4 0.00 0.00 0.00
-98.6 224.4 -5.9 0.00 0.00 0.00
-98.6 224.1 -2.1 0.00 0.00 0.00
-98.6 223.2 1.7 0.00 0.00 0.00
-98.6 221.7 5.3 0.00 0.00 0.00
-98.6 219.8 8.6 0.00 0.00 0.00
-98.6 217.3 11.6 0.00 0.00 0.00
-98.6 214.4 14.1 0.00 0.00 0.00
-98.6 211.2 16.2 0.00 0.00 0.00
-98.6 207.6 17.8 0.00 0.00 0.00
-98.6 203.9 18.8 0.00 0.00 0.00
-98.6 200.1 19.2 0.00 0.00 0.00
-16.9 227.5 -17.3 0.00 0.00 0.00
-16.9 227.2 -13 0.00 0.00 0.00
-16.9 226.2 -8.8 0.00 0.00 0.00
-16.9 224.6 -4.8 0.00 0.00 0.00
-16.9 222.3 -1 0.00 0.00 0.00
-16.9 219.6 2.3 0.00 0.00 0.00
-16.9 216.3 5.2 0.00 0.00 0.00
-16.9 212.7 7.6 0.00 0.00 0.00
-16.9 208.7 9.3 0.00 0.00 0.00
-16.9 204.5 10.5 0.00 0.00 0.00
-16.9 200.2 10.9 0.00 0.00 0.00
-98.6 224.4 -17.3 0.00 0.00 0.00
-98.6 224.1 -13.5 0.00 0.00 0.00
-98.6 223.2 -9.7 0.00 0.00 0.00
-98.6 221.7 -6.2 0.00 0.00 0.00
-98.6 219.8 -2.8 0.00 0.00 0.00
-98.6 217.3 0.1 0.00 0.00 0.00
-98.6 214.4 2.7 0.00 0.00 0.00
-98.6 211.2 4.8 0.00 0.00 0.00
-98.6 207.6 6.3 0.00 0.00 0.00
-98.6 203.9 7.4 0.00 0.00 0.00
-98.6 200.1 7.8 0.00 0.00 0.00
-16.9 227.5 -28.8 0.00 0.00 0.00
-16.9 227.2 -24.5 0.00 0.00 0.00
-16.9 226.2 -20.2 0.00 0.00 0.00
-16.9 224.6 -16.2 0.00 0.00 0.00
-16.9 222.3 -12.5 0.00 0.00 0.00
-16.9 219.6 -9.1 0.00 0.00 0.00
-16.9 216.3 -6.2 0.00 0.00 0.00
-16.9 212.7 -3.9 0.00 0.00 0.00
-16.9 208.7 -2.1 0.00 0.00 0.00
-16.9 204.5 -1 0.00 0.00 0.00
-16.9 200.2 -0.5 0.00 0.00 0.00
-98.6 224.4 -28.8 0.00 0.00 0.00
-98.6 224.1 -24.9 0.00 0.00 0.00
-98.6 223.2 -21.2 0.00 0.00 0.00
-98.6 221.7 -17.6 0.00 0.00 0.00
-98.6 219.8 -14.3 0.00 0.00 0.00
-98.6 217.3 -11.3 0.00 0.00 0.00
-98.6 214.4 -8.8 0.00 0.00 0.00
-98.6 211.2 -6.7 0.00 0.00 0.00
-98.6 207.6 -5.1 0.00 0.00 0.00
-98.6 203.9 -4.1 0.00 0.00 0.00
-98.6 200.1 -3.6 0.00 0.00 0.00
-16.9 231 89.2 0.00 0.00 0.00
-16.9 230.7 93.5 0.00 0.00 0.00
-16.9 229.7 97.7 0.00 0.00 0.00
-16.9 228.1 101.7 0.00 0.00 0.00
-16.9 225.8 105.5 0.00 0.00 0.00
-16.9 223.1 108.8 0.00 0.00 0.00
-16.9 219.8 111.7 0.00 0.00 0.00
-16.9 216.2 114.1 0.00 0.00 0.00
-16.9 212.2 115.8 0.00 0.00 0.00
-16.9 208 117 0.00 0.00 0.00
-16.9 203.7 117.5 0.00 0.00 0.00
-98.6 227.9 89.2 0.00 0.00 0.00
-98.6 227.6 93 0.00 0.00 0.00
-98.6 226.7 96.8 0.00 0.00 0.00
-98.6 225.2 100.3 0.00 0.00 0.00
-98.6 223.3 103.7 0.00 0.00 0.00
-98.6 220.8 106.6 0.00 0.00 0.00
-98.6 217.9 109.2 0.00 0.00 0.00
-98.6 214.7 111.3 0.00 0.00 0.00
-98.6 211.1 112.9 0.00 0.00 0.00
-98.6 207.4 113.9 0.00 0.00 0.00
-98.6 203.6 114.3 0.00 0.00 0.00
-16.9 231 77 0.00 0.00 0.00
-16.9 230.7 81.3 0.00 0.00 0.00
-16.9 229.7 85.6 0.00 0.00 0.00
-16.9 228.1 89.6 0.00 0.00 0.00
-16.9 225.8 93.3 0.00 0.00 0.00
-16.9 223.1 96.7 0.00 0.00 0.00
-16.9 219.8 99.6 0.00 0.00 0.00
-16.9 216.2 101.9 0.00 0.00 0.00
-16.9 212.2 103.7 0.00 0.00 0.00
-16.9 208 104.8 0.00 0.00 0.00
-16.9 203.7 105.3 0.00 0.00 0.00
-98.6 227.9 77 0.00 0.00 0.00
-98.6 227.6 80.9 0.00 0.00 0.00
-98.6 226.7 84.6 0.00 0.00 0.00
-98.6 225.2 88.2 0.00 0.00 0.00
-98.6 223.3 91.5 0.00 0.00 0.00
-98.6 220.8 94.5 0.00 0.00 0.00
-98.6 217.9 97 0.00 0.00 0.00
-98.6 214.7 99.1 0.00 0.00 0.00
-98.6 211.1 100.7 0.00 0.00 0.00
-98.6 207.4 101.7 0.00 0.00 0.00
-98.6 203.6 102.2 0.00 0.00 0.00
-16.9 231 64.9 0.00 0.00 0.00
-16.9 230.7 69.2 0.00 0.00 0.00
-16.9 229.7 73.4 0.00 0.00 0.00
-16.9 228.1 77.4 0.00 0.00 0.00
-16.9 225.8 81.2 0.00 0.00 0.00
-16.9 223.1 84.5 0.00 0.00 0.00
-16.9 219.8 87.4 0.00 0.00 0.00
-16.9 216.2 89.8 0.00 0.00 0.00
-16.9 212.2 91.5 0.00 0.00 0.00
-16.9 208 92.7 0.00 0.00 0.00
-16.9 203.7 93.2 0.00 0.00 0.00
-98.6 227.9 64.9 0.00 0.00 0.00
-98.6 227.6 68.7 0.00 0.00 0.00
-98.6 226.7 72.5 0.00 0.00 0.00
-98.6 225.2 76 0.00 0.00 0.00
-98.6 223.3 79.4 0.00 0.00 0.00
-98.6 220.8 82.3 0.00 0.00 0.00
-98.6 217.9 84.9 0.00 0.00 0.00
-98.6 214.7 87 0.00 0.00 0.00
-98.6 211.1 88.6 0.00 0.00 0.00
-98.6 207.4 89.6 0.00 0.00 0.00
-98.6 203.6 90 0.00 0.00 0.00
-16.9 231 52.7 0.00 0.00 0.00
-16.9 230.7 57 0.00 0.00 0.00
-16.9 229.7 61.3 0.00 0.00 0.00
-16.9 228.1 65.3 0.00 0.00 0.00
-16.9 225.8 69 0.00 0.00 0.00
-16.9 223.1 72.4 0.00 0.00 0.00
-16.9 219.8 75.3 0.00 0.00 0.00
-16.9 216.2 77.6 0.00 0.00 0.00
-16.9 212.2 79.4 0.00 0.00 0.00
-16.9 208 80.5 0.00 0.00 0.00
-16.9 203.7 81 0.00 0.00 0.00
-98.6 227.9 52.7 0.00 0.00 0.00
-98.6 227.6 56.6 0.00 0.00 0.00
-98.6 226.7 60.3 0.00 0.00 0.00
-98.6 225.2 63.9 0.00 0.00 0.00
-98.6 223.3 67.2 0.00 0.00 0.00
-98.6 220.8 70.2 0.00 0.00 0.00
-98.6 217.9 72.7 0.00 0.00 0.00
-98.6 214.7 74.8 0.00 0.00 0.00
-98.6 211.1 76.4 0.00 0.00 0.00
-98.6 207.4 77.4 0.00 0.00 0.00
-98.6 203.6 77.9 0.00 0.00 0.00
-16.9 231 40.6 0.00 0.00 0.00
-16.9 230.7 44.9 0.00 0.00 0.00
-16.9 229.7 49.1 0.00 0.00 0.00
-16.9 228.1 53.1 0.00 0.00 0.00
-16.9 225.8 56.9 0.00 0.00 0.00
-16.9 223.1 60.2 0.00 0.00 0.00
-16.9 219.8 63.1 0.00 0.00 0.00
-16.9 216.2 65.5 0.00 0.00 0.00
-16.9 212.2 67.2 0.00 0.00 0.00
-16.9 208 68.4 0.00 0.00 0.00
-16.9 203.7 68.9 0.00 0.00 0.00
-98.6 227.9 40.6 0.00 0.00 0.00
-98.6 227.6 44.4 0.00 0.00 0.00
-98.6 226.7 48.2 0.00 0.00 0.00
-98.6 225.2 51.7 0.00 0.00 0.00
-98.6 223.3 55.1 0.00 0.00 0.00
-98.6 220.8 58 0.00 0.00 0.00
-98.6 217.9 60.6 0.00 0.00 0.00
-98.6 214.7 62.7 0.00 0.00 0.00
