-36.7 213.8 -39.1 0.00 0.00 0.00
-37.7 213.8 -39.1 0.00 0.00 0.00
-38.7 213.8 -39.1 0.00 0.00 0.00
-39.7 213.8 -39.1 0.00 0.00 0.00
-40.7 213.8 -39.1 0.00 0.00 0.00
-41.7 213.8 -39.1 0.00 0.00 0.00
-42.7 213.8 -39.1 0.00 0.00 0.00
-43.7 213.8 -39.1 0.00 0.00 0.00
-44.7 213.8 -39.1 0.00 0.00 0.00
-45.7 213.8 -39.1 0.00 0.00 0.00
-46.7 213.8 -39.1 0.00 0.00 0.00
-47.7 213.8 -39.1 0.00 0.00 0.00
-48.7 213.8 -39.1 0.00 0.00 0.00
-49.7 213.8 -39.1 0.00 0.00 0.00
-50.7 213.8 -39.1 0.00 0.00 0.00
-51.7 213.8 -39.1 0.00 0.00 0.00
-52.7 213.8 -39.1 0.00 0.00 0.00
-53.7 213.8 -39.1 0.00 0.00 0.00
-54.7 213.8 -39.1 0.00 0.00 0.00
-55.7 213.8 -39.1 0.00 0.00 0.00
-56.7 213.8 -39.1 0.00 0.00 0.00
-57.7 213.8 -39.1 0.00 0.00 0.00
-58.7 213.8 -39.1 0.00 0.00 0.00
-59.7 213.8 -39.1 0.00 0.00 0.00
-60.7 213.8 -39.1 0.00 0.00 0.00
-61.7 213.8 -39.1 0.00 0.00 0.00
-62.7 213.8 -39.1 0.00 0.00 0.00
-63.7 213.8 -39.1 0.00 0.00 0.00
-64.7 213.8 -39.1 0.00 0.00 0.00
-65.7 213.8 -39.1 0.00 0.00 0.00
-66.7 213.8 -39.1 0.00 0.00 0.00
-67.7 213.8 -39.1 0.00 0.00 0.00
-68.7 213.8 -39.1 0.00 0.00 0.00
-69.7 213.8 -39.1 0.00 0.00 0.00
-70.7 213.8 -39.1 0.00 0.00 0.00
-71.7 213.8 -39.1 0.00 0.00 0.00
-72.7 213.8 -39.1 0.00 0.00 0.00
-73.7 213.8 -39.1 0.00 0.00 0.00
-74.7 213.8 -39.1 0.00 0.00 0.00
-75.7 213.8 -39.1 0.00 0.00 0.00
-76.7 213.8 -39.1 0.00 0.00 0.00
-77.7 213.8 -39.1 0.00 0.00 0.00
-78.7 213.8 -39.1 0.00 0.00 0.00
-79.7 213.8 -39.1 0.00 0.00 0.00
-30.7 213.8 -40.7 0.00 0.00 0.00
-31.7 213.8 -40.7 0.00 0.00 0.00
-32.7 213.8 -40.7 0.00 0.00 0.00
-33.7 213.8 -40.7 0.00 0.00 0.00
-34.7 213.8 -40.7 0.00 0.00 0.00
-35.7 213.8 -40.7 0.00 0.00 0.00
-36.7 213.8 -40.7 0.00 0.00 0.00
-37.7 213.8 -40.7 0.00 0.00 0.00
-38.7 213.8 -40.7 0.00 0.00 0.00
-39.7 213.8 -40.7 0.00 0.00 0.00
-40.7 213.8 -40.7 0.00 0.00 0.00
-41.7 213.8 -40.7 0.00 0.00 0.00
-42.7 213.8 -40.7 0.00 0.00 0.00
-43.7 213.8 -40.7 0.00 0.00 0.00
-44.7 213.8 -40.7 0.00 0.00 0.00
-45.7 213.8 -40.7 0.00 0.00 0.00
-46.7 213.8 -40.7 0.00 0.00 0.00
-47.7 213.8 -40.7 0.00 0.00 0.00
-48.7 213.8 -40.7 0.00 0.00 0.00
-49.7 213.8 -40.7 0.00 0.00 0.00
-50.7 213.8 -40.7 0.00 0.00 0.00
-51.7 213.8 -40.7 0.00 0.00 0.00
-52.7 213.8 -40.7 0.00 0.00 0.00
-53.7 213.8 -40.7 0.00 0.00 0.00
-54.7 213.8 -40.7 0.00 0.00 0.00
-55.7 213.8 -40.7 0.00 0.00 0.00
-56.7 213.8 -40.7 0.00 0.00 0.00
-57.7 213.8 -40.7 0.00 0.00 0.00
-58.7 213.8 -40.7 0.00 0.00 0.00
-59.7 213.8 -40.7 0.00 0.00 0.00
-60.7 213.8 -40.7 0.00 0.00 0.00
-61.7 213.8 -40.7 0.00 0.00 0.00
-62.7 213.8 -40.7 0.00 0.00 0.00
-63.7 213.8 -40.7 0.00 0.00 0.00
-64.7 213.8 -40.7 0.00 0.00 0.00
-65.7 213.8 -40.7 0.00 0.00 0.00
-66.7 213.8 -40.7 0.00 0.00 0.00
-67.7 213.8 -40.7 0.00 0.00 0.00
-68.7 213.8 -40.7 0.00 0.00 0.00
-69.7 213.8 -40.7 0.00 0.00 0.00
-70.7 213.8 -40.7 0.00 0.00 0.00
-71.7 213.8 -40.7 0.00 0.00 0.00
-72.7 213.8 -40.7 0.00 0.00 0.00
-73.7 213.8 -40.7 0.00 0.00 0.00
-74.7 213.8 -40.7 0.00 0.00 0.00
-75.7 213.8 -40.7 0.00 0.00 0.00
-76.7 213.8 -40.7 0.00 0.00 0.00
-77.7 213.8 -40.7 0.00 0.00 0.00
-78.7 213.8 -40.7 0.00 0.00 0.00
-79.7 213.8 -40.7 0.00 0.00 0.00
-30.7 213.8 -42.2 0.00 0.00 0.00
-31.7 213.8 -42.2 0.00 0.00 0.00
-32.7 213.8 -42.2 0.00 0.00 0.00
-33.7 213.8 -42.2 0.00 0.00 0.00
-34.7 213.8 -42.2 0.00 0.00 0.00
-35.7 213.8 -42.2 0.00 0.00 0.00
-36.7 213.8 -42.2 0.00 0.00 0.00
-37.7 213.8 -42.2 0.00 0.00 0.00
-38.7 213.8 -42.2 0.00 0.00 0.00
-39.7 213.8 -42.2 0.00 0.00 0.00
-40.7 213.8 -42.2 0.00 0.00 0.00
-41.7 213.8 -42.2 0.00 0.00 0.00
-42.7 213.8 -42.2 0.00 0.00 0.00
-43.7 213.8 -42.2 0.00 0.00 0.00
-44.7 213.8 -42.2 0.00 0.00 0.00
-45.7 213.8 -42.2 0.00 0.00 0.00
-46.7 213.8 -42.2 0.00 0.00 0.00
-47.7 213.8 -42.2 0.00 0.00 0.00
-48.7 213.8 -42.2 0.00 0.00 0.00
-49.7 213.8 -42.2 0.00 0.00 0.00
-50.7 213.8 -42.2 0.00 0.00 0.00
-51.7 213.8 -42.2 0.00 0.00 0.00
-52.7 213.8 -42.2 0.00 0.00 0.00
-53.7 213.8 -42.2 0.00 0.00 0.00
-54.7 213.8 -42.2 0.00 0.00 0.00
-55.7 213.8 -42.2 0.00 0.00 0.00
-56.7 213.8 -42.2 0.00 0.00 0.00
-57.7 213.8 -42.2 0.00 0.00 0.00
-58.7 213.8 -42.2 0.00 0.00 0.00
-59.7 213.8 -42.2 0.00 0.00 0.00
-60.7 213.8 -42.2 0.00 0.00 0.00
-61.7 213.8 -42.2 0.00 0.00 0.00
-62.7 213.8 -42.2 0.00 0.00 0.00
-63.7 213.8 -42.2 0.00 0.00 0.00
-64.7 213.8 -42.2 0.00 0.00 0.00
-65.7 213.8 -42.2 0.00 0.00 0.00
-66.7 213.8 -42.2 0.00 0.00 0.00
-67.7 213.8 -42.2 0.00 0.00 0.00
-68.7 213.8 -42.2 0.00 0.00 0.00
-69.7 213.8 -42.2 0.00 0.00 0.00
-70.7 213.8 -42.2 0.00 0.00 0.00
-71.7 213.8 -42.2 0.00 0.00 0.00
-72.7 213.8 -42.2 0.00 0.00 0.00
-73.7 213.8 -42.2 0.00 0.00 0.00
-74.7 213.8 -42.2 0.00 0.00 0.00
-75.7 213.8 -42.2 0.00 0.00 0.00
-76.7 213.8 -42.2 0.00 0.00 0.00
-77.7 213.8 -42.2 0.00 0.00 0.00
-78.7 213.8 -42.2 0.00 0.00 0.00
-79.7 213.8 -42.2 0.00 0.00 0.00
-30.7 213.8 -43.8 0.00 0.00 0.00
-31.7 213.8 -43.8 0.00 0.00 0.00
-32.7 213.8 -43.8 0.00 0.00 0.00
-33.7 213.8 -43.8 0.00 0.00 0.00
-34.7 213.8 -43.8 0.00 0.00 0.00
-35.7 213.8 -43.8 0.00 0.00 0.00
-36.7 213.8 -43.8 0.00 0.00 0.00
-37.7 213.8 -43.8 0.00 0.00 0.00
-38.7 213.8 -43.8 0.00 0.00 0.00
-39.7 213.8 -43.8 0.00 0.00 0.00
-40.7 213.8 -43.8 0.00 0.00 0.00
-41.7 213.8 -43.8 0.00 0.00 0.00
-42.7 213.8 -43.8 0.00 0.00 0.00
-43.7 213.8 -43.8 0.00 0.00 0.00
-44.7 213.8 -43.8 0.00 0.00 0.00
-45.7 213.8 -43.8 0.00 0.00 0.00
-46.7 213.8 -43.8 0.00 0.00 0.00
-47.7 213.8 -43.8 0.00 0.00 0.00
-48.7 213.8 -43.8 0.00 0.00 0.00
-49.7 213.8 -43.8 0.00 0.00 0.00
-50.7 213.8 -43.8 0.00 0.00 0.00
-51.7 213.8 -43.8 0.00 0.00 0.00
-52.7 213.8 -43.8 0.00 0.00 0.00
-53.7 213.8 -43.8 0.00 0.00 0.00
-54.7 213.8 -43.8 0.00 0.00 0.00
-55.7 213.8 -43.8 0.00 0.00 0.00
-56.7 213.8 -43.8 0.00 0.00 0.00
-57.7 213.8 -43.8 0.00 0.00 0.00
-58.7 213.8 -43.8 0.00 0.00 0.00
-59.7 213.8 -43.8 0.00 0.00 0.00
-60.7 213.8 -43.8 0.00 0.00 0.00
-61.7 213.8 -43.8 0.00 0.00 0.00
-62.7 213.8 -43.8 0.00 0.00 0.00
-63.7 213.8 -43.8 0.00 0.00 0.00
-64.7 213.8 -43.8 0.00 0.00 0.00
-65.7 213.8 -43.8 0.00 0.00 0.00
-66.7 213.8 -43.8 0.00 0.00 0.00
-67.7 213.8 -43.8 0.00 0.00 0.00
-68.7 213.8 -43.8 0.00 0.00 0.00
-69.7 213.8 -43.8 0.00 0.00 0.00
-70.7 213.8 -43.8 0.00 0.00 0.00
-71.7 213.8 -43.8 0.00 0.00 0.00
-72.7 213.8 -43.8 0.00 0.00 0.00
-73.7 213.8 -43.8 0.00 0.00 0.00
-74.7 213.8 -43.8 0.00 0.00 0.00
-75.7 213.8 -43.8 0.00 0.00 0.00
-76.7 213.8 -43.8 0.00 0.00 0.00
-77.7 213.8 -43.8 0.00 0.00 0.00
-78.7 213.8 -43.8 0.00 0.00 0.00
-79.7 213.8 -43.8 0.00 0.00 0.00
-30.7 213.8 -45.4 0.00 0.00 0.00
-31.7 213.8 -45.4 0.00 0.00 0.00
-32.7 213.8 -45.4 0.00 0.00 0.00
-33.7 213.8 -45.4 0.00 0.00 0.00
-34.7 213.8 -45.4 0.00 0.00 0.00
-35.7 213.8 -45.4 0.00 0.00 0.00
-36.7 213.8 -45.4 0.00 0.00 0.00
-37.7 213.8 -45.4 0.00 0.00 0.00
-38.7 213.8 -45.4 0.00 0.00 0.00
-39.7 213.8 -45.4 0.00 0.00 0.00
-40.7 213.8 -45.4 0.00 0.00 0.00
-41.7 213.8 -45.4 0.00 0.00 0.00
-42.7 213.8 -45.4 0.00 0.00 0.00
-43.7 213.8 -45.4 0.00 0.00 0.00
-44.7 213.8 -45.4 0.00 0.00 0.00
-45.7 213.8 -45.4 0.00 0.00 0.00
-46.7 213.8 -45.4 0.00 0.00 0.00
-47.7 213.8 -45.4 0.00 0.00 0.00
-48.7 213.8 -45.4 0.00 0.00 0.00
-49.7 213.8 -45.4 0.00 0.00 0.00
-50.7 213.8 -45.4 0.00 0.00 0.00
-51.7 213.8 -45.4 0.00 0.00 0.00
-52.7 213.8 -45.4 0.00 0.00 0.00
-53.7 213.8 -45.4 0.00 0.00 0.00
-54.7 213.8 -45.4 0.00 0.00 0.00
-55.7 213.8 -45.4 0.00 0.00 0.00
-56.7 213.8 -45.4 0.00 0.00 0.00
-57.7 213.8 -45.4 0.00 0.00 0.00
-58.7 213.8 -45.4 0.00 0.00 0.00
-59.7 213.8 -45.4 0.00 0.00 0.00
-60.7 213.8 -45.4 0.00 0.00 0.00
-61.7 213.8 -45.4 0.00 0.00 0.00
-62.7 213.8 -45.4 0.00 0.00 0.00
-63.7 213.8 -45.4 0.00 0.00 0.00
-64.7 213.8 -45.4 0.00 0.00 0.00
-65.7 213.8 -45.4 0.00 0.00 0.00
-66.7 213.8 -45.4 0.00 0.00 0.00
-67.7 213.8 -45.4 0.00 0.00 0.00
-68.7 213.8 -45.4 0.00 0.00 0.00
-69.7 213.8 -45.4 0.00 0.00 0.00
-70.7 213.8 -45.4 0.00 0.00 0.00
-71.7 213.8 -45.4 0.00 0.00 0.00
-72.7 213.8 -45.4 0.00 0.00 0.00
-73.7 213.8 -45.4 0.00 0.00 0.00
-74.7 213.8 -45.4 0.00 0.00 0.00
-75.7 213.8 -45.4 0.00 0.00 0.00
-76.7 213.8 -45.4 0.00 0.00 0.00
-77.7 213.8 -45.4 0.00 0.00 0.00
-78.7 213.8 -45.4 0.00 0.00 0.00
-79.7 213.8 -45.4 0.00 0.00 0.00
-30.7 213.8 -46.9 0.00 0.00 0.00
-31.7 213.8 -46.9 0.00 0.00 0.00
-32.7 213.8 -46.9 0.00 0.00 0.00
-33.7 213.8 -46.9 0.00 0.00 0.00
-34.7 213.8 -46.9 0.00 0.00 0.00
-35.7 213.8 -46.9 0.00 0.00 0.00
-36.7 213.8 -46.9 0.00 0.00 0.00
-37.7 213.8 -46.9 0.00 0.00 0.00
-38.7 213.8 -46.9 0.00 0.00 0.00
-39.7 213.8 -46.9 0.00 0.00 0.00
-40.7 213.8 -46.9 0.00 0.00 0.00
-41.7 213.8 -46.9 0.00 0.00 0.00
-42.7 213.8 -46.9 0.00 0.00 0.00
-43.7 213.8 -46.9 0.00 0.00 0.00
-44.7 213.8 -46.9 0.00 0.00 0.00
-45.7 213.8 -46.9 0.00 0.00 0.00
-46.7 213.8 -46.9 0.00 0.00 0.00
-47.7 213.8 -46.9 0.00 0.00 0.00
-48.7 213.8 -46.9 0.00 0.00 0.00
-49.7 213.8 -46.9 0.00 0.00 0.00
-50.7 213.8 -46.9 0.00 0.00 0.00
-51.7 213.8 -46.9 0.00 0.00 0.00
-52.7 213.8 -46.9 0.00 0.00 0.00
-53.7 213.8 -46.9 0.00 0.00 0.00
-54.7 213.8 -46.9 0.00 0.00 0.00
-55.7 213.8 -46.9 0.00 0.00 0.00
-56.7 213.8 -46.9 0.00 0.00 0.00
-57.7 213.8 -46.9 0.00 0.00 0.00
-58.7 213.8 -46.9 0.00 0.00 0.00
-59.7 213.8 -46.9 0.00 0.00 0.00
-60.7 213.8 -46.9 0.00 0.00 0.00
-61.7 213.8 -46.9 0.00 0.00 0.00
-62.7 213.8 -46.9 0.00 0.00 0.00
-63.7 213.8 -46.9 0.00 0.00 0.00
-64.7 213.8 -46.9 0.00 0.00 0.00
-65.7 213.8 -46.9 0.00 0.00 0.00
-66.7 213.8 -46.9 0.00 0.00 0.00
-67.7 213.8 -46.9 0.00 0.00 0.00
-68.7 213.8 -46.9 0.00 0.00 0.00
-69.7 213.8 -46.9 0.00 0.00 0.00
-70.7 213.8 -46.9 0.00 0.00 0.00
-71.7 213.8 -46.9 0.00 0.00 0.00
-72.7 213.8 -46.9 0.00 0.00 0.00
-73.7 213.8 -46.9 0.00 0.00 0.00
-74.7 213.8 -46.9 0.00 0.00 0.00
-75.7 213.8 -46.9 0.00 0.00 0.00
-76.7 213.8 -46.9 0.00 0.00 0.00
-77.7 213.8 -46.9 0.00 0.00 0.00
-78.7 213.8 -46.9 0.00 0.00 0.00
-79.7 213.8 -46.9 0.00 0.00 0.00
-30.7 213.8 -48.5 0.00 0.00 0.00
-31.7 213.8 -48.5 0.00 0.00 0.00
-32.7 213.8 -48.5 0.00 0.00 0.00
-33.7 213.8 -48.5 0.00 0.00 0.00
-34.7 213.8 -48.5 0.00 0.00 0.00
-35.7 213.8 -48.5 0.00 0.00 0.00
-36.7 213.8 -48.5 0.00 0.00 0.00
-37.7 213.8 -48.5 0.00 0.00 0.00
-38.7 213.8 -48.5 0.00 0.00 0.00
-39.7 213.8 -48.5 0.00 0.00 0.00
-40.7 213.8 -48.5 0.00 0.00 0.00
-41.7 213.8 -48.5 0.00 0.00 0.00
-42.7 213.8 -48.5 0.00 0.00 0.00
-43.7 213.8 -48.5 0.00 0.00 0.00
-44.7 213.8 -48.5 0.00 0.00 0.00
-45.7 213.8 -48.5 0.00 0.00 0.00
-46.7 213.8 -48.5 0.00 0.00 0.00
-47.7 213.8 -48.5 0.00 0.00 0.00
-48.7 213.8 -48.5 0.00 0.00 0.00
-49.7 213.8 -48.5 0.00 0.00 0.00
-50.7 213.8 -48.5 0.00 0.00 0.00
-51.7 213.8 -48.5 0.00 0.00 0.00
-52.7 213.8 -48.5 0.00 0.00 0.00
-53.7 213.8 -48.5 0.00 0.00 0.00
-54.7 213.8 -48.5 0.00 0.00 0.00
-55.7 213.8 -48.5 0.00 0.00 0.00
-56.7 213.8 -48.5 0.00 0.00 0.00
-57.7 213.8 -48.5 0.00 0.00 0.00
-58.7 213.8 -48.5 0.00 0.00 0.00
-59.7 213.8 -48.5 0.00 0.00 0.00
-60.7 213.8 -48.5 0.00 0.00 0.00
-61.7 213.8 -48.5 0.00 0.00 0.00
-62.7 213.8 -48.5 0.00 0.00 0.00
-63.7 213.8 -48.5 0.00 0.00 0.00
-64.7 213.8 -48.5 0.00 0.00 0.00
-65.7 213.8 -48.5 0.00 0.00 0.00
-66.7 213.8 -48.5 0.00 0.00 0.00
-67.7 213.8 -48.5 0.00 0.00 0.00
-68.7 213.8 -48.5 0.00 0.00 0.00
-69.7 213.8 -48.5 0.00 0.00 0.00
-70.7 213.8 -48.5 0.00 0.00 0.00
-71.7 213.8 -48.5 0.00 0.00 0.00
-72.7 213.8 -48.5 0.00 0.00 0.00
-73.7 213.8 -48.5 0.00 0.00 0.00
-74.7 213.8 -48.5 0.00 0.00 0.00
-75.7 213.8 -48.5 0.00 0.00 0.00
-76.7 213.8 -48.5 0.00 0.00 0.00
-77.7 213.8 -48.5 0.00 0.00 0.00
-78.7 213.8 -48.5 0.00 0.00 0.00
-79.7 213.8 -48.5 0.00 0.00 0.00
-30.7 213.8 -50.1 0.00 0.00 0.00
-31.7 213.8 -50.1 0.00 0.00 0.00
-32.7 213.8 -50.1 0.00 0.00 0.00
-33.7 213.8 -50.1 0.00 0.00 0.00
-34.7 213.8 -50.1 0.00 0.00 0.00
-35.7 213.8 -50.1 0.00 0.00 0.00
-36.7 213.8 -50.1 0.00 0.00 0.00
-37.7 213.8 -50.1 0.00 0.00 0.00
-38.7 213.8 -50.1 0.00 0.00 0.00
-39.7 213.8 -50.1 0.00 0.00 0.00
-40.7 213.8 -50.1 0.00 0.00 0.00
-41.7 213.8 -50.1 0.00 0.00 0.00
-42.7 213.8 -50.1 0.00 0.00 0.00
-43.7 213.8 -50.1 0.00 0.00 0.00
-44.7 213.8 -50.1 0.00 0.00 0.00
-45.7 213.8 -50.1 0.00 0.00 0.00
-46.7 213.8 -50.1 0.00 0.00 0.00
-47.7 213.8 -50.1 0.00 0.00 0.00
-48.7 213.8 -50.1 0.00 0.00 0.00
-49.7 213.8 -50.1 0.00 0.00 0.00
-50.7 213.8 -50.1 0.00 0.00 0.00
-51.7 213.8 -50.1 0.00 0.00 0.00
-52.7 213.8 -50.1 0.00 0.00 0.00
-53.7 213.8 -50.1 0.00 0.00 0.00
-54.7 213.8 -50.1 0.00 0.00 0.00
-55.7 213.8 -50.1 0.00 0.00 0.00
-56.7 213.8 -50.1 0.00 0.00 0.00
-57.7 213.8 -50.1 0.00 0.00 0.00
-58.7 213.8 -50.1 0.00 0.00 0.00
-59.7 213.8 -50.1 0.00 0.00 0.00
-60.7 213.8 -50.1 0.00 0.00 0.00
-61.7 213.8 -50.1 0.00 0.00 0.00
-62.7 213.8 -50.1 0.00 0.00 0.00
-63.7 213.8 -50.1 0.00 0.00 0.00
-64.7 213.8 -50.1 0.00 0.00 0.00
-65.7 213.8 -50.1 0.00 0.00 0.00
-66.7 213.8 -50.1 0.00 0.00 0.00
-67.7 213.8 -50.1 0.00 0.00 0.00
-68.7 213.8 -50.1 0.00 0.00 0.00
-69.7 213.8 -50.1 0.00 0.00 0.00
-70.7 213.8 -50.1 0.00 0.00 0.00
-71.7 213.8 -50.1 0.00 0.00 0.00
-72.7 213.8 -50.1 0.00 0.00 0.00
-73.7 213.8 -50.1 0.00 0.00 0.00
-74.7 213.8 -50.1 0.00 0.00 0.00
-75.7 213.8 -50.1 0.00 0.00 0.00
-76.7 213.8 -50.1 0.00 0.00 0.00
-77.7 213.8 -50.1 0.00 0.00 0.00
-78.7 213.8 -50.1 0.00 0.00 0.00
-79.7 213.8 -50.1 0.00 0.00 0.00
-30.7 173.6 71.4 0.00 0.00 0.00
-31.7 173.6 71.4 0.00 0.00 0.00
-32.7 173.6 71.4 0.00 0.00 0.00
-33.7 173.6 71.4 0.00 0.00 0.00
-34.7 173.6 71.4 0.00 0.00 0.00
-35.7 173.6 71.4 0.00 0.00 0.00
-36.7 173.6 71.4 0.00 0.00 0.00
-37.7 173.6 71.4 0.00 0.00 0.00
-38.7 173.6 71.4 0.00 0.00 0.00
-39.7 173.6 71.4 0.00 0.00 0.00
-40.7 173.6 71.4 0.00 0.00 0.00
-41.7 173.6 71.4 0.00 0.00 0.00
-42.7 173.6 71.4 0.00 0.00 0.00
-43.7 173.6 71.4 0.00 0.00 0.00
-44.7 173.6 71.4 0.00 0.00 0.00
-45.7 173.6 71.4 0.00 0.00 0.00
-46.7 173.6 71.4 0.00 0.00 0.00
-47.7 173.6 71.4 0.00 0.00 0.00
-48.7 173.6 71.4 0.00 0.00 0.00
-49.7 173.6 71.4 0.00 0.00 0.00
-50.7 173.6 71.4 0.00 0.00 0.00
-51.7 173.6 71.4 0.00 0.00 0.00
-52.7 173.6 71.4 0.00 0.00 0.00
-53.7 173.6 71.4 0.00 0.00 0.00
-54.7 173.6 71.4 0.00 0.00 0.00
-55.7 173.6 71.4 0.00 0.00 0.00
-56.7 173.6 71.4 0.00 0.00 0.00
-57.7 173.6 71.4 0.00 0.00 0.00
-58.7 173.6 71.4 0.00 0.00 0.00
-59.7 173.6 71.4 0.00 0.00 0.00
-60.7 173.6 71.4 0.00 0.00 0.00
-61.7 173.6 71.4 0.00 0.00 0.00
-62.7 173.6 71.4 0.00 0.00 0.00
-63.7 173.6 71.4 0.00 0.00 0.00
-64.7 173.6 71.4 0.00 0.00 0.00
-65.7 173.6 71.4 0.00 0.00 0.00
-66.7 173.6 71.4 0.00 0.00 0.00
-67.7 173.6 71.4 0.00 0.00 0.00
-68.7 173.6 71.4 0.00 0.00 0.00
-69.7 173.6 71.4 0.00 0.00 0.00
-70.7 173.6 71.4 0.00 0.00 0.00
-71.7 173.6 71.4 0.00 0.00 0.00
-72.7 173.6 71.4 0.00 0.00 0.00
-73.7 173.6 71.4 0.00 0.00 0.00
-74.7 173.6 71.4 0.00 0.00 0.00
-75.7 173.6 71.4 0.00 0.00 0.00
-76.7 173.6 71.4 0.00 0.00 0.00
-77.7 173.6 71.4 0.00 0.00 0.00
-78.7 173.6 71.4 0.00 0.00 0.00
-79.7 173.6 71.4 0.00 0.00 0.00
-30.7 173.6 62.8 0.00 0.00 0.00
-31.7 173.6 62.8 0.00 0.00 0.00
-32.7 173.6 62.8 0.00 0.00 0.00
-33.7 173.6 62.8 0.00 0.00 0.00
-34.7 173.6 62.8 0.00 0.00 0.00
-35.7 173.6 62.8 0.00 0.00 0.00
-36.7 173.6 62.8 0.00 0.00 0.00
-37.7 173.6 62.8 0.00 0.00 0.00
-38.7 173.6 62.8 0.00 0.00 0.00
-39.7 173.6 62.8 0.00 0.00 0.00
-40.7 173.6 62.8 0.00 0.00 0.00
-41.7 173.6 62.8 0.00 0.00 0.00
-42.7 173.6 62.8 0.00 0.00 0.00
-43.7 173.6 62.8 0.00 0.00 0.00
-44.7 173.6 62.8 0.00 0.00 0.00
-45.7 173.6 62.8 0.00 0.00 0.00
-46.7 173.6 62.8 0.00 0.00 0.00
-47.7 173.6 62.8 0.00 0.00 0.00
-48.7 173.6 62.8 0.00 0.00 0.00
-49.7 173.6 62.8 0.00 0.00 0.00
-50.7 173.6 62.8 0.00 0.00 0.00
-51.7 173.6 62.8 0.00 0.00 0.00
-52.7 173.6 62.8 0.00 0.00 0.00
-53.7 173.6 62.8 0.00 0.00 0.00
-54.7 173.6 62.8 0.00 0.00 0.00
-55.7 173.6 62.8 0.00 0.00 0.00
-56.7 173.6 62.8 0.00 0.00 0.00
-57.7 173.6 62.8 0.00 0.00 0.00
-58.7 173.6 62.8 0.00 0.00 0.00
-59.7 173.6 62.8 0.00 0.00 0.00
-60.7 173.6 62.8 0.00 0.00 0.00
-61.7 173.6 62.8 0.00 0.00 0.00
-62.7 173.6 62.8 0.00 0.00 0.00
-63.7 173.6 62.8 0.00 0.00 0.00
-64.7 173.6 62.8 0.00 0.00 0.00
-65.7 173.6 62.8 0.00 0.00 0.00
-66.7 173.6 62.8 0.00 0.00 0.00
-67.7 173.6 62.8 0.00 0.00 0.00
-68.7 173.6 62.8 0.00 0.00 0.00
-69.7 173.6 62.8 0.00 0.00 0.00
-70.7 173.6 62.8 0.00 0.00 0.00
-71.7 173.6 62.8 0.00 0.00 0.00
-72.7 173.6 62.8 0.00 0.00 0.00
-73.7 173.6 62.8 0.00 0.00 0.00
-74.7 173.6 62.8 0.00 0.00 0.00
-75.7 173.6 62.8 0.00 0.00 0.00
-76.7 173.6 62.8 0.00 0.00 0.00
-77.7 173.6 62.8 0.00 0.00 0.00
-78.7 173.6 62.8 0.00 0.00 0.00
-79.7 173.6 62.8 0.00 0.00 0.00
-30.7 173.6 54.2 0.00 0.00 0.00
-31.7 173.6 54.2 0.00 0.00 0.00
-32.7 173.6 54.2 0.00 0.00 0.00
-33.7 173.6 54.2 0.00 0.00 0.00
-34.7 173.6 54.2 0.00 0.00 0.00
-35.7 173.6 54.2 0.00 0.00 0.00
-36.7 173.6 54.2 0.00 0.00 0.00
-37.7 173.6 54.2 0.00 0.00 0.00
-38.7 173.6 54.2 0.00 0.00 0.00
-39.7 173.6 54.2 0.00 0.00 0.00
-40.7 173.6 54.2 0.00 0.00 0.00
-41.7 173.6 54.2 0.00 0.00 0.00
-42.7 173.6 54.2 0.00 0.00 0.00
-43.7 173.6 54.2 0.00 0.00 0.00
-44.7 173.6 54.2 0.00 0.00 0.00
-45.7 173.6 54.2 0.00 0.00 0.00
-46.7 173.6 54.2 0.00 0.00 0.00
-47.7 173.6 54.2 0.00 0.00 0.00
-48.7 173.6 54.2 0.00 0.00 0.00
-49.7 173.6 54.2 0.00 0.00 0.00
-50.7 173.6 54.2 0.00 0.00 0.00
-51.7 173.6 54.2 0.00 0.00 0.00
-52.7 173.6 54.2 0.00 0.00 0.00
-53.7 173.6 54.2 0.00 0.00 0.00
-54.7 173.6 54.2 0.00 0.00 0.00
-55.7 173.6 54.2 0.00 0.00 0.00
-56.7 173.6 54.2 0.00 0.00 0.00
-57.7 173.6 54.2 0.00 0.00 0.00
-58.7 173.6 54.2 0.00 0.00 0.00
-59.7 173.6 54.2 0.00 0.00 0.00
-60.7 173.6 54.2 0.00 0.00 0.00
-61.7 173.6 54.2 0.00 0.00 0.00
-62.7 173.6 54.2 0.00 0.00 0.00
-63.7 173.6 54.2 0.00 0.00 0.00
-64.7 173.6 54.2 0.00 0.00 0.00
-65.7 173.6 54.2 0.00 0.00 0.00
-66.7 173.6 54.2 0.00 0.00 0.00
-67.7 173.6 54.2 0.00 0.00 0.00
-68.7 173.6 54.2 0.00 0.00 0.00
-69.7 173.6 54.2 0.00 0.00 0.00
-70.7 173.6 54.2 0.00 0.00 0.00
-71.7 173.6 54.2 0.00 0.00 0.00
-72.7 173.6 54.2 0.00 0.00 0.00
-73.7 173.6 54.2 0.00 0.00 0.00
-74.7 173.6 54.2 0.00 0.00 0.00
-75.7 173.6 54.2 0.00 0.00 0.00
-76.7 173.6 54.2 0.00 0.00 0.00
-77.7 173.6 54.2 0.00 0.00 0.00
-78.7 173.6 54.2 0.00 0.00 0.00
-79.7 173.6 54.2 0.00 0.00 0.00
-30.7 173.6 45.6 0.00 0.00 0.00
-31.7 173.6 45.6 0.00 0.00 0.00
-32.7 173.6 45.6 0.00 0.00 0.00
-33.7 173.6 45.6 0.00 0.00 0.00
-34.7 173.6 45.6 0.00 0.00 0.00
-35.7 173.6 45.6 0.00 0.00 0.00
-36.7 173.6 45.6 0.00 0.00 0.00
-37.7 173.6 45.6 0.00 0.00 0.00
-38.7 173.6 45.6 0.00 0.00 0.00
-39.7 173.6 45.6 0.00 0.00 0.00
-40.7 173.6 45.6 0.00 0.00 0.00
-41.7 173.6 45.6 0.00 0.00 0.00
-42.7 173.6 45.6 0.00 0.00 0.00
-43.7 173.6 45.6 0.00 0.00 0.00
-44.7 173.6 45.6 0.00 0.00 0.00
-45.7 173.6 45.6 0.00 0.00 0.00
-46.7 173.6 45.6 0.00 0.00 0.00
-47.7 173.6 45.6 0.00 0.00 0.00
-48.7 173.6 45.6 0.00 0.00 0.00
-49.7 173.6 45.6 0.00 0.00 0.00
-50.7 173.6 45.6 0.00 0.00 0.00
-51.7 173.6 45.6 0.00 0.00 0.00
-52.7 173.6 45.6 0.00 0.00 0.00
-53.7 173.6 45.6 0.00 0.00 0.00
-54.7 173.6 45.6 0.00 0.00 0.00
-55.7 173.6 45.6 0.00 0.00 0.00
-56.7 173.6 45.6 0.00 0.00 0.00
-57.7 173.6 45.6 0.00 0.00 0.00
-58.7 173.6 45.6 0.00 0.00 0.00
-59.7 173.6 45.6 0.00 0.00 0.00
-60.7 173.6 45.6 0.00 0.00 0.00
-61.7 173.6 45.6 0.00 0.00 0.00
-62.7 173.6 45.6 0.00 0.00 0.00
-63.7 173.6 45.6 0.00 0.00 0.00
-64.7 173.6 45.6 0.00 0.00 0.00
-65.7 173.6 45.6 0.00 0.00 0.00
-66.7 173.6 45.6 0.00 0.00 0.00
-67.7 173.6 45.6 0.00 0.00 0.00
-68.7 173.6 45.6 0.00 0.00 0.00
-69.7 173.6 45.6 0.00 0.00 0.00
-70.7 173.6 45.6 0.00 0.00 0.00
-71.7 173.6 45.6 0.00 0.00 0.00
-72.7 173.6 45.6 0.00 0.00 0.00
-73.7 173.6 45.6 0.00 0.00 0.00
-74.7 173.6 45.6 0.00 0.00 0.00
-75.7 173.6 45.6 0.00 0.00 0.00
-76.7 173.6 45.6 0.00 0.00 0.00
-77.7 173.6 45.6 0.00 0.00 0.00
-78.7 173.6 45.6 0.00 0.00 0.00
-79.7 173.6 45.6 0.00 0.00 0.00
-30.7 173.6 37 0.00 0.00 0.00
-31.7 173.6 37 0.00 0.00 0.00
-32.7 173.6 37 0.00 0.00 0.00
-33.7 173.6 37 0.00 0.00 0.00
-34.7 173.6 37 0.00 0.00 0.00
-35.7 173.6 37 0.00 0.00 0.00
-36.7 173.6 37 0.00 0.00 0.00
-37.7 173.6 37 0.00 0.00 0.00
-38.7 173.6 37 0.00 0.00 0.00
-39.7 173.6 37 0.00 0.00 0.00
-40.7 173.6 37 0.00 0.00 0.00
-41.7 173.6 37 0.00 0.00 0.00
-42.7 173.6 37 0.00 0.00 0.00
-43.7 173.6 37 0.00 0.00 0.00
-44.7 173.6 37 0.00 0.00 0.00
-45.7 173.6 37 0.00 0.00 0.00
-46.7 173.6 37 0.00 0.00 0.00
-47.7 173.6 37 0.00 0.00 0.00
-48.7 173.6 37 0.00 0.00 0.00
-49.7 173.6 37 0.00 0.00 0.00
-50.7 173.6 37 0.00 0.00 0.00
-51.7 173.6 37 0.00 0.00 0.00
-52.7 173.6 37 0.00 0.00 0.00
-53.7 173.6 37 0.00 0.00 0.00
-54.7 173.6 37 0.00 0.00 0.00
-55.7 173.6 37 0.00 0.00 0.00
-56.7 173.6 37 0.00 0.00 0.00
-57.7 173.6 37 0.00 0.00 0.00
-58.7 173.6 37 0.00 0.00 0.00
-59.7 173.6 37 0.00 0.00 0.00
-60.7 173.6 37 0.00 0.00 0.00
-61.7 173.6 37 0.00 0.00 0.00
-62.7 173.6 37 0.00 0.00 0.00
-63.7 173.6 37 0.00 0.00 0.00
-64.7 173.6 37 0.00 0.00 0.00
-65.7 173.6 37 0.00 0.00 0.00
-66.7 173.6 37 0.00 0.00 0.00
-67.7 173.6 37 0.00 0.00 0.00
-68.7 173.6 37 0.00 0.00 0.00
-69.7 173.6 37 0.00 0.00 0.00
-70.7 173.6 37 0.00 0.00 0.00
-71.7 173.6 37 0.00 0.00 0.00
-72.7 173.6 37 0.00 0.00 0.00
-73.7 173.6 37 0.00 0.00 0.00
-74.7 173.6 37 0.00 0.00 0.00
-75.7 173.6 37 0.00 0.00 0.00
-76.7 173.6 37 0.00 0.00 0.00
-77.7 173.6 37 0.00 0.00 0.00
-78.7 173.6 37 0.00 0.00 0.00
-79.7 173.6 37 0.00 0.00 0.00
-30.7 173.6 28.4 0.00 0.00 0.00
-31.7 173.6 28.4 0.00 0.00 0.00
-32.7 173.6 28.4 0.00 0.00 0.00
-33.7 173.6 28.4 0.00 0.00 0.00
-34.7 173.6 28.4 0.00 0.00 0.00
-35.7 173.6 28.4 0.00 0.00 0.00
-36.7 173.6 28.4 0.00 0.00 0.00
-37.7 173.6 28.4 0.00 0.00 0.00
-38.7 173.6 28.4 0.00 0.00 0.00
-39.7 173.6 28.4 0.00 0.00 0.00
-40.7 173.6 28.4 0.00 0.00 0.00
-41.7 173.6 28.4 0.00 0.00 0.00
-42.7 173.6 28.4 0.00 0.00 0.00
-43.7 173.6 28.4 0.00 0.00 0.00
-44.7 173.6 28.4 0.00 0.00 0.00
-45.7 173.6 28.4 0.00 0.00 0.00
-46.7 173.6 28.4 0.00 0.00 0.00
-47.7 173.6 28.4 0.00 0.00 0.00
-48.7 173.6 28.4 0.00 0.00 0.00
-49.7 173.6 28.4 0.00 0.00 0.00
-50.7 173.6 28.4 0.00 0.00 0.00
-51.7 173.6 28.4 0.00 0.00 0.00
-52.7 173.6 28.4 0.00 0.00 0.00
-53.7 173.6 28.4 0.00 0.00 0.00
-54.7 173.6 28.4 0.00 0.00 0.00
-55.7 173.6 28.4 0.00 0.00 0.00
-56.7 173.6 28.4 0.00 0.00 0.00
-57.7 173.6 28.4 0.00 0.00 0.00
-58.7 173.6 28.4 0.00 0.00 0.00
-59.7 173.6 28.4 0.00 0.00 0.00
-60.7 173.6 28.4 0.00 0.00 0.00
-61.7 173.6 28.4 0.00 0.00 0.00
-62.7 173.6 28.4 0.00 0.00 0.00
-63.7 173.6 28.4 0.00 0.00 0.00
-64.7 173.6 28.4 0.00 0.00 0.00
-65.7 173.6 28.4 0.00 0.00 0.00
-66.7 173.6 28.4 0.00 0.00 0.00
-67.7 173.6 28.4 0.00 0.00 0.00
-68.7 173.6 28.4 0.00 0.00 0.00
-69.7 173.6 28.4 0.00 0.00 0.00
-70.7 173.6 28.4 0.00 0.00 0.00
-71.7 173.6 28.4 0.00 0.00 0.00
-72.7 173.6 28.4 0.00 0.00 0.00
-73.7 173.6 28.4 0.00 0.00 0.00
-74.7 173.6 28.4 0.00 0.00 0.00
-75.7 173.6 28.4 0.00 0.00 0.00
-76.7 173.6 28.4 0.00 0.00 0.00
-77.7 173.6 28.4 0.00 0.00 0.00
-78.7 173.6 28.4 0.00 0.00 0.00
-79.7 173.6 28.4 0.00 0.00 0.00
-30.7 173.6 19.8 0.00 0.00 0.00
-31.7 173.6 19.8 0.00 0.00 0.00
-32.7 173.6 19.8 0.00 0.00 0.00
-33.7 173.6 19.8 0.00 0.00 0.00
-34.7 173.6 19.8 0.00 0.00 0.00
-35.7 173.6 19.8 0.00 0.00 0.00
-36.7 173.6 19.8 0.00 0.00 0.00
-37.7 173.6 19.8 0.00 0.00 0.00
-38.7 173.6 19.8 0.00 0.00 0.00
-39.7 173.6 19.8 0.00 0.00 0.00
-40.7 173.6 19.8 0.00 0.00 0.00
-41.7 173.6 19.8 0.00 0.00 0.00
-42.7 173.6 19.8 0.00 0.00 0.00
-43.7 173.6 19.8 0.00 0.00 0.00
-44.7 173.6 19.8 0.00 0.00 0.00
-45.7 173.6 19.8 0.00 0.00 0.00
-46.7 173.6 19.8 0.00 0.00 0.00
-47.7 173.6 19.8 0.00 0.00 0.00
-48.7 173.6 19.8 0.00 0.00 0.00
-49.7 173.6 19.8 0.00 0.00 0.00
-50.7 173.6 19.8 0.00 0.00 0.00
-51.7 173.6 19.8 0.00 0.00 0.00
-52.7 173.6 19.8 0.00 0.00 0.00
-53.7 173.6 19.8 0.00 0.00 0.00
-54.7 173.6 19.8 0.00 0.00 0.00
-55.7 173.6 19.8 0.00 0.00 0.00
-56.7 173.6 19.8 0.00 0.00 0.00
-57.7 173.6 19.8 0.00 0.00 0.00
-58.7 173.6 19.8 0.00 0.00 0.00
-59.7 173.6 19.8 0.00 0.00 0.00
-60.7 173.6 19.8 0.00 0.00 0.00
-61.7 173.6 19.8 0.00 0.00 0.00
-62.7 173.6 19.8 0.00 0.00 0.00
-63.7 173.6 19.8 0.00 0.00 0.00
-64.7 173.6 19.8 0.00 0.00 0.00
-65.7 173.6 19.8 0.00 0.00 0.00
-66.7 173.6 19.8 0.00 0.00 0.00
-67.7 173.6 19.8 0.00 0.00 0.00
-68.7 173.6 19.8 0.00 0.00 0.00
-69.7 173.6 19.8 0.00 0.00 0.00
-70.7 173.6 19.8 0.00 0.00 0.00
-71.7 173.6 19.8 0.00 0.00 0.00
-72.7 173.6 19.8 0.00 0.00 0.00
-73.7 173.6 19.8 0.00 0.00 0.00
-74.7 173.6 19.8 0.00 0.00 0.00
-75.7 173.6 19.8 0.00 0.00 0.00
-76.7 173.6 19.8 0.00 0.00 0.00
-77.7 173.6 19.8 0.00 0.00 0.00
-78.7 173.6 19.8 0.00 0.00 0.00
-79.7 173.6 19.8 0.00 0.00 0.00
-30.7 173.6 11.2 0.00 0.00 0.00
-31.7 173.6 11.2 0.00 0.00 0.00
-32.7 173.6 11.2 0.00 0.00 0.00
-33.7 173.6 11.2 0.00 0.00 0.00
-34.7 173.6 11.2 0.00 0.00 0.00
-35.7 173.6 11.2 0.00 0.00 0.00
-36.7 173.6 11.2 0.00 0.00 0.00
-37.7 173.6 11.2 0.00 0.00 0.00
-38.7 173.6 11.2 0.00 0.00 0.00
-39.7 173.6 11.2 0.00 0.00 0.00
-40.7 173.6 11.2 0.00 0.00 0.00
-41.7 173.6 11.2 0.00 0.00 0.00
-42.7 173.6 11.2 0.00 0.00 0.00
-43.7 173.6 11.2 0.00 0.00 0.00
-44.7 173.6 11.2 0.00 0.00 0.00
-45.7 173.6 11.2 0.00 0.00 0.00
-46.7 173.6 11.2 0.00 0.00 0.00
-47.7 173.6 11.2 0.00 0.00 0.00
-48.7 173.6 11.2 0.00 0.00 0.00
-49.7 173.6 11.2 0.00 0.00 0.00
-50.7 173.6 11.2 0.00 0.00 0.00
-51.7 173.6 11.2 0.00 0.00 0.00
-52.7 173.6 11.2 0.00 0.00 0.00
-53.7 173.6 11.2 0.00 0.00 0.00
-54.7 173.6 11.2 0.00 0.00 0.00
-55.7 173.6 11.2 0.00 0.00 0.00
-56.7 173.6 11.2 0.00 0.00 0.00
-57.7 173.6 11.2 0.00 0.00 0.00
-58.7 173.6 11.2 0.00 0.00 0.00
-59.7 173.6 11.2 0.00 0.00 0.00
-60.7 173.6 11.2 0.00 0.00 0.00
-61.7 173.6 11.2 0.00 0.00 0.00
-62.7 173.6 11.2 0.00 0.00 0.00
-63.7 173.6 11.2 0.00 0.00 0.00
-64.7 173.6 11.2 0.00 0.00 0.00
-65.7 173.6 11.2 0.00 0.00 0.00
-66.7 173.6 11.2 0.00 0.00 0.00
-67.7 173.6 11.2 0.00 0.00 0.00
-68.7 173.6 11.2 0.00 0.00 0.00
-69.7 173.6 11.2 0.00 0.00 0.00
-70.7 173.6 11.2 0.00 0.00 0.00
-71.7 173.6 11.2 0.00 0.00 0.00
-72.7 173.6 11.2 0.00 0.00 0.00
-73.7 173.6 11.2 0.00 0.00 0.00
-74.7 173.6 11.2 0.00 0.00 0.00
-75.7 173.6 11.2 0.00 0.00 0.00
-76.7 173.6 11.2 0.00 0.00 0.00
-77.7 173.6 11.2 0.00 0.00 0.00
-78.7 173.6 11.2 0.00 0.00 0.00
-79.7 173.6 11.2 0.00 0.00 0.00
-30.7 173.6 2.6 0.00 0.00 0.00
-31.7 173.6 2.6 0.00 0.00 0.00
-32.7 173.6 2.6 0.00 0.00 0.00
-33.7 173.6 2.6 0.00 0.00 0.00
-34.7 173.6 2.6 0.00 0.00 0.00
-35.7 173.6 2.6 0.00 0.00 0.00
-36.7 173.6 2.6 0.00 0.00 0.00
-37.7 173.6 2.6 0.00 0.00 0.00
-38.7 173.6 2.6 0.00 0.00 0.00
-39.7 173.6 2.6 0.00 0.00 0.00
-40.7 173.6 2.6 0.00 0.00 0.00
-41.7 173.6 2.6 0.00 0.00 0.00
-42.7 173.6 2.6 0.00 0.00 0.00
-43.7 173.6 2.6 0.00 0.00 0.00
-44.7 173.6 2.6 0.00 0.00 0.00
-45.7 173.6 2.6 0.00 0.00 0.00
-46.7 173.6 2.6 0.00 0.00 0.00
-47.7 173.6 2.6 0.00 0.00 0.00
-48.7 173.6 2.6 0.00 0.00 0.00
-49.7 173.6 2.6 0.00 0.00 0.00
-50.7 173.6 2.6 0.00 0.00 0.00
-51.7 173.6 2.6 0.00 0.00 0.00
-52.7 173.6 2.6 0.00 0.00 0.00
-53.7 173.6 2.6 0.00 0.00 0.00
-54.7 173.6 2.6 0.00 0.00 0.00
-55.7 173.6 2.6 0.00 0.00 0.00
-56.7 173.6 2.6 0.00 0.00 0.00
-57.7 173.6 2.6 0.00 0.00 0.00
-58.7 173.6 2.6 0.00 0.00 0.00
-59.7 173.6 2.6 0.00 0.00 0.00
-60.7 173.6 2.6 0.00 0.00 0.00
-61.7 173.6 2.6 0.00 0.00 0.00
-62.7 173.6 2.6 0.00 0.00 0.00
-63.7 173.6 2.6 0.00 0.00 0.00
-64.7 173.6 2.6 0.00 0.00 0.00
-65.7 173.6 2.6 0.00 0.00 0.00
-66.7 173.6 2.6 0.00 0.00 0.00
-67.7 173.6 2.6 0.00 0.00 0.00
-68.7 173.6 2.6 0.00 0.00 0.00
-69.7 173.6 2.6 0.00 0.00 0.00
-70.7 173.6 2.6 0.00 0.00 0.00
-71.7 173.6 2.6 0.00 0.00 0.00
-72.7 173.6 2.6 0.00 0.00 0.00
-73.7 173.6 2.6 0.00 0.00 0.00
-74.7 173.6 2.6 0.00 0.00 0.00
-75.7 173.6 2.6 0.00 0.00 0.00
-76.7 173.6 2.6 0.00 0.00 0.00
-77.7 173.6 2.6 0.00 0.00 0.00
-78.7 173.6 2.6 0.00 0.00 0.00
-79.7 173.6 2.6 0.00 0.00 0.00
-30.7 173.6 -6 0.00 0.00 0.00
-31.7 173.6 -6 0.00 0.00 0.00
-32.7 173.6 -6 0.00 0.00 0.00
-33.7 173.6 -6 0.00 0.00 0.00
-34.7 173.6 -6 0.00 0.00 0.00
-35.7 173.6 -6 0.00 0.00 0.00
-36.7 173.6 -6 0.00 0.00 0.00
-37.7 173.6 -6 0.00 0.00 0.00
-38.7 173.6 -6 0.00 0.00 0.00
-39.7 173.6 -6 0.00 0.00 0.00
-40.7 173.6 -6 0.00 0.00 0.00
-41.7 173.6 -6 0.00 0.00 0.00
-42.7 173.6 -6 0.00 0.00 0.00
-43.7 173.6 -6 0.00 0.00 0.00
-44.7 173.6 -6 0.00 0.00 0.00
-45.7 173.6 -6 0.00 0.00 0.00
-46.7 173.6 -6 0.00 0.00 0.00
-47.7 173.6 -6 0.00 0.00 0.00
-48.7 173.6 -6 0.00 0.00 0.00
-49.7 173.6 -6 0.00 0.00 0.00
-50.7 173.6 -6 0.00 0.00 0.00
-51.7 173.6 -6 0.00 0.00 0.00
-52.7 173.6 -6 0.00 0.00 0.00
-53.7 173.6 -6 0.00 0.00 0.00
-54.7 173.6 -6 0.00 0.00 0.00
-55.7 173.6 -6 0.00 0.00 0.00
-56.7 173.6 -6 0.00 0.00 0.00
-57.7 173.6 -6 0.00 0.00 0.00
-58.7 173.6 -6 0.00 0.00 0.00
-59.7 173.6 -6 0.00 0.00 0.00
-60.7 173.6 -6 0.00 0.00 0.00
-61.7 173.6 -6 0.00 0.00 0.00
-62.7 173.6 -6 0.00 0.00 0.00
-63.7 173.6 -6 0.00 0.00 0.00
-64.7 173.6 -6 0.00 0.00 0.00
-65.7 173.6 -6 0.00 0.00 0.00
-66.7 173.6 -6 0.00 0.00 0.00
-67.7 173.6 -6 0.00 0.00 0.00
-68.7 173.6 -6 0.00 0.00 0.00
-69.7 173.6 -6 0.00 0.00 0.00
-70.7 173.6 -6 0.00 0.00 0.00
-71.7 173.6 -6 0.00 0.00 0.00
-72.7 173.6 -6 0.00 0.00 0.00
-73.7 173.6 -6 0.00 0.00 0.00
-74.7 173.6 -6 0.00 0.00 0.00
-75.7 173.6 -6 0.00 0.00 0.00
-76.7 173.6 -6 0.00 0.00 0.00
-77.7 173.6 -6 0.00 0.00 0.00
-78.7 173.6 -6 0.00 0.00 0.00
-79.7 173.6 -6 0.00 0.00 0.00
-30.7 173.6 -14.6 0.00 0.00 0.00
-31.7 173.6 -14.6 0.00 0.00 0.00
-32.7 173.6 -14.6 0.00 0.00 0.00
-33.7 173.6 -14.6 0.00 0.00 0.00
-34.7 173.6 -14.6 0.00 0.00 0.00
-35.7 173.6 -14.6 0.00 0.00 0.00
-36.7 173.6 -14.6 0.00 0.00 0.00
-37.7 173.6 -14.6 0.00 0.00 0.00
-38.7 173.6 -14.6 0.00 0.00 0.00
-39.7 173.6 -14.6 0.00 0.00 0.00
-40.7 173.6 -14.6 0.00 0.00 0.00
-41.7 173.6 -14.6 0.00 0.00 0.00
-42.7 173.6 -14.6 0.00 0.00 0.00
-43.7 173.6 -14.6 0.00 0.00 0.00
-44.7 173.6 -14.6 0.00 0.00 0.00
-45.7 173.6 -14.6 0.00 0.00 0.00
-46.7 173.6 -14.6 0.00 0.00 0.00
-47.7 173.6 -14.6 0.00 0.00 0.00
-48.7 173.6 -14.6 0.00 0.00 0.00
-49.7 173.6 -14.6 0.00 0.00 0.00
-50.7 173.6 -14.6 0.00 0.00 0.00
-51.7 173.6 -14.6 0.00 0.00 0.00
-52.7 173.6 -14.6 0.00 0.00 0.00
-53.7 173.6 -14.6 0.00 0.00 0.00
-54.7 173.6 -14.6 0.00 0.00 0.00
-55.7 173.6 -14.6 0.00 0.00 0.00
-56.7 173.6 -14.6 0.00 0.00 0.00
-57.7 173.6 -14.6 0.00 0.00 0.00
-58.7 173.6 -14.6 0.00 0.00 0.00
-59.7 173.6 -14.6 0.00 0.00 0.00
-60.7 173.6 -14.6 0.00 0.00 0.00
-61.7 173.6 -14.6 0.00 0.00 0.00
-62.7 173.6 -14.6 0.00 0.00 0.00
-63.7 173.6 -14.6 0.00 0.00 0.00
-64.7 173.6 -14.6 0.00 0.00 0.00
-65.7 173.6 -14.6 0.00 0.00 0.00
-66.7 173.6 -14.6 0.00 0.00 0.00
-67.7 173.6 -14.6 0.00 0.00 0.00
-68.7 173.6 -14.6 0.00 0.00 0.00
-69.7 173.6 -14.6 0.00 0.00 0.00
-70.7 173.6 -14.6 0.00 0.00 0.00
-71.7 173.6 -14.6 0.00 0.00 0.00
-72.7 173.6 -14.6 0.00 0.00 0.00
-73.7 173.6 -14.6 0.00 0.00 0.00
-74.7 173.6 -14.6 0.00 0.00 0.00
-75.7 173.6 -14.6 0.00 0.00 0.00
-76.7 173.6 -14.6 0.00 0.00 0.00
-77.7 173.6 -14.6 0.00 0.00 0.00
-78.7 173.6 -14.6 0.00 0.00 0.00
-79.7 173.6 -14.6 0.00 0.00 0.00
-30.7 183.4 75 0.00 0.00 0.00
-31.7 183.4 75 0.00 0.00 0.00
-32.7 183.4 75 0.00 0.00 0.00
-33.7 183.4 75 0.00 0.00 0.00
-34.7 183.4 75 0.00 0.00 0.00
-35.7 183.4 75 0.00 0.00 0.00
-36.7 183.4 75 0.00 0.00 0.00
-37.7 183.4 75 0.00 0.00 0.00
-38.7 183.4 75 0.00 0.00 0.00
-39.7 183.4 75 0.00 0.00 0.00
-40.7 183.4 75 0.00 0.00 0.00
-41.7 183.4 75 0.00 0.00 0.00
-42.7 183.4 75 0.00 0.00 0.00
-43.7 183.4 75 0.00 0.00 0.00
-44.7 183.4 75 0.00 0.00 0.00
-45.7 183.4 75 0.00 0.00 0.00
-46.7 183.4 75 0.00 0.00 0.00
-47.7 183.4 75 0.00 0.00 0.00
-48.7 183.4 75 0.00 0.00 0.00
-49.7 183.4 75 0.00 0.00 0.00
-50.7 183.4 75 0.00 0.00 0.00
-51.7 183.4 75 0.00 0.00 0.00
-52.7 183.4 75 0.00 0.00 0.00
-53.7 183.4 75 0.00 0.00 0.00
-54.7 183.4 75 0.00 0.00 0.00
-55.7 183.4 75 0.00 0.00 0.00
-56.7 183.4 75 0.00 0.00 0.00
-57.7 183.4 75 0.00 0.00 0.00
-58.7 183.4 75 0.00 0.00 0.00
-59.7 183.4 75 0.00 0.00 0.00
-60.7 183.4 75 0.00 0.00 0.00
-61.7 183.4 75 0.00 0.00 0.00
-62.7 183.4 75 0.00 0.00 0.00
-63.7 183.4 75 0.00 0.00 0.00
-64.7 183.4 75 0.00 0.00 0.00
-65.7 183.4 75 0.00 0.00 0.00
-66.7 183.4 75 0.00 0.00 0.00
-67.7 183.4 75 0.00 0.00 0.00
-68.7 183.4 75 0.00 0.00 0.00
-69.7 183.4 75 0.00 0.00 0.00
-70.7 183.4 75 0.00 0.00 0.00
-71.7 183.4 75 0.00 0.00 0.00
-72.7 183.4 75 0.00 0.00 0.00
-73.7 183.4 75 0.00 0.00 0.00
-74.7 183.4 75 0.00 0.00 0.00
-75.7 183.4 75 0.00 0.00 0.00
-76.7 183.4 75 0.00 0.00 0.00
-77.7 183.4 75 0.00 0.00 0.00
-78.7 183.4 75 0.00 0.00 0.00
-79.7 183.4 75 0.00 0.00 0.00
-30.7 190 78.5 0.00 0.00 0.00
-31.7 190 78.5 0.00 0.00 0.00
-32.7 190 78.5 0.00 0.00 0.00
-33.7 190 78.5 0.00 0.00 0.00
-34.7 190 78.5 0.00 0.00 0.00
-35.7 190 78.5 0.00 0.00 0.00
-36.7 190 78.5 0.00 0.00 0.00
-37.7 190 78.5 0.00 0.00 0.00
-38.7 190 78.5 0.00 0.00 0.00
-39.7 190 78.5 0.00 0.00 0.00
-40.7 190 78.5 0.00 0.00 0.00
-41.7 190 78.5 0.00 0.00 0.00
-42.7 190 78.5 0.00 0.00 0.00
-43.7 190 78.5 0.00 0.00 0.00
-44.7 190 78.5 0.00 0.00 0.00
-45.7 190 78.5 0.00 0.00 0.00
-46.7 190 78.5 0.00 0.00 0.00
-47.7 190 78.5 0.00 0.00 0.00
-48.7 190 78.5 0.00 0.00 0.00
-49.7 190 78.5 0.00 0.00 0.00
-50.7 190 78.5 0.00 0.00 0.00
-51.7 190 78.5 0.00 0.00 0.00
-52.7 190 78.5 0.00 0.00 0.00
-53.7 190 78.5 0.00 0.00 0.00
-54.7 190 78.5 0.00 0.00 0.00
-55.7 190 78.5 0.00 0.00 0.00
-56.7 190 78.5 0.00 0.00 0.00
-57.7 190 78.5 0.00 0.00 0.00
-58.7 190 78.5 0.00 0.00 0.00
-59.7 190 78.5 0.00 0.00 0.00
-60.7 190 78.5 0.00 0.00 0.00
-61.7 190 78.5 0.00 0.00 0.00
-62.7 190 78.5 0.00 0.00 0.00
-63.7 190 78.5 0.00 0.00 0.00
-64.7 190 78.5 0.00 0.00 0.00
-65.7 190 78.5 0.00 0.00 0.00
-66.7 190 78.5 0.00 0.00 0.00
-67.7 190 78.5 0.00 0.00 0.00
-68.7 190 78.5 0.00 0.00 0.00
-69.7 190 78.5 0.00 0.00 0.00
-70.7 190 78.5 0.00 0.00 0.00
-71.7 190 78.5 0.00 0.00 0.00
-72.7 190 78.5 0.00 0.00 0.00
-73.7 190 78.5 0.00 0.00 0.00
-74.7 190 78.5 0.00 0.00 0.00
-75.7 190 78.5 0.00 0.00 0.00
-76.7 190 78.5 0.00 0.00 0.00
-77.7 190 78.5 0.00 0.00 0.00
-78.7 190 78.5 0.00 0.00 0.00
-79.7 190 78.5 0.00 0.00 0.00
-30.7 195 82.1 0.00 0.00 0.00
-31.7 195 82.1 0.00 0.00 0.00
-32.7 195 82.1 0.00 0.00 0.00
-33.7 195 82.1 0.00 0.00 0.00
-34.7 195 82.1 0.00 0.00 0.00
-35.7 195 82.1 0.00 0.00 0.00
-36.7 195 82.1 0.00 0.00 0.00
-37.7 195 82.1 0.00 0.00 0.00
-38.7 195 82.1 0.00 0.00 0.00
-39.7 195 82.1 0.00 0.00 0.00
-40.7 195 82.1 0.00 0.00 0.00
-41.7 195 82.1 0.00 0.00 0.00
-42.7 195 82.1 0.00 0.00 0.00
-43.7 195 82.1 0.00 0.00 0.00
-44.7 195 82.1 0.00 0.00 0.00
-45.7 195 82.1 0.00 0.00 0.00
-46.7 195 82.1 0.00 0.00 0.00
-47.7 195 82.1 0.00 0.00 0.00
-48.7 195 82.1 0.00 0.00 0.00
-49.7 195 82.1 0.00 0.00 0.00
-50.7 195 82.1 0.00 0.00 0.00
-51.7 195 82.1 0.00 0.00 0.00
-52.7 195 82.1 0.00 0.00 0.00
-53.7 195 82.1 0.00 0.00 0.00
-54.7 195 82.1 0.00 0.00 0.00
-55.7 195 82.1 0.00 0.00 0.00
-56.7 195 82.1 0.00 0.00 0.00
-57.7 195 82.1 0.00 0.00 0.00
-58.7 195 82.1 0.00 0.00 0.00
-59.7 195 82.1 0.00 0.00 0.00
-60.7 195 82.1 0.00 0.00 0.00
-61.7 195 82.1 0.00 0.00 0.00
-62.7 195 82.1 0.00 0.00 0.00
-63.7 195 82.1 0.00 0.00 0.00
-64.7 195 82.1 0.00 0.00 0.00
-65.7 195 82.1 0.00 0.00 0.00
-66.7 195 82.1 0.00 0.00 0.00
-67.7 195 82.1 0.00 0.00 0.00
-68.7 195 82.1 0.00 0.00 0.00
-69.7 195 82.1 0.00 0.00 0.00
-70.7 195 82.1 0.00 0.00 0.00
-71.7 195 82.1 0.00 0.00 0.00
-72.7 195 82.1 0.00 0.00 0.00
-73.7 195 82.1 0.00 0.00 0.00
-74.7 195 82.1 0.00 0.00 0.00
-75.7 195 82.1 0.00 0.00 0.00
-76.7 195 82.1 0.00 0.00 0.00
-77.7 195 82.1 0.00 0.00 0.00
-78.7 195 82.1 0.00 0.00 0.00
-79.7 195 82.1 0.00 0.00 0.00
-30.7 199.2 85.6 0.00 0.00 0.00
-31.7 199.2 85.6 0.00 0.00 0.00
-32.7 199.2 85.6 0.00 0.00 0.00
-33.7 199.2 85.6 0.00 0.00 0.00
-34.7 199.2 85.6 0.00 0.00 0.00
-35.7 199.2 85.6 0.00 0.00 0.00
-36.7 199.2 85.6 0.00 0.00 0.00
-37.7 199.2 85.6 0.00 0.00 0.00
-38.7 199.2 85.6 0.00 0.00 0.00
-39.7 199.2 85.6 0.00 0.00 0.00
-40.7 199.2 85.6 0.00 0.00 0.00
-41.7 199.2 85.6 0.00 0.00 0.00
-42.7 199.2 85.6 0.00 0.00 0.00
-43.7 199.2 85.6 0.00 0.00 0.00
-44.7 199.2 85.6 0.00 0.00 0.00
-45.7 199.2 85.6 0.00 0.00 0.00
-46.7 199.2 85.6 0.00 0.00 0.00
-47.7 199.2 85.6 0.00 0.00 0.00
-48.7 199.2 85.6 0.00 0.00 0.00
-49.7 199.2 85.6 0.00 0.00 0.00
-50.7 199.2 85.6 0.00 0.00 0.00
-51.7 199.2 85.6 0.00 0.00 0.00
-52.7 199.2 85.6 0.00 0.00 0.00
-53.7 199.2 85.6 0.00 0.00 0.00
-54.7 199.2 85.6 0.00 0.00 0.00
-55.7 199.2 85.6 0.00 0.00 0.00
-56.7 199.2 85.6 0.00 0.00 0.00
-57.7 199.2 85.6 0.00 0.00 0.00
-58.7 199.2 85.6 0.00 0.00 0.00
-59.7 199.2 85.6 0.00 0.00 0.00
-60.7 199.2 85.6 0.00 0.00 0.00
-61.7 199.2 85.6 0.00 0.00 0.00
-62.7 199.2 85.6 0.00 0.00 0.00
-63.7 199.2 85.6 0.00 0.00 0.00
-64.7 199.2 85.6 0.00 0.00 0.00
-65.7 199.2 85.6 0.00 0.00 0.00
-66.7 199.2 85.6 0.00 0.00 0.00
-67.7 199.2 85.6 0.00 0.00 0.00
-68.7 199.2 85.6 0.00 0.00 0.00
-69.7 199.2 85.6 0.00 0.00 0.00
-70.7 199.2 85.6 0.00 0.00 0.00
-71.7 199.2 85.6 0.00 0.00 0.00
-72.7 199.2 85.6 0.00 0.00 0.00
-73.7 199.2 85.6 0.00 0.00 0.00
-74.7 199.2 85.6 0.00 0.00 0.00
-75.7 199.2 85.6 0.00 0.00 0.00
-76.7 199.2 85.6 0.00 0.00 0.00
-77.7 199.2 85.6 0.00 0.00 0.00
-78.7 199.2 85.6 0.00 0.00 0.00
-79.7 199.2 85.6 0.00 0.00 0.00
-30.7 202.7 89.2 0.00 0.00 0.00
-31.7 202.7 89.2 0.00 0.00 0.00
-32.7 202.7 89.2 0.00 0.00 0.00
-33.7 202.7 89.2 0.00 0.00 0.00
-34.7 202.7 89.2 0.00 0.00 0.00
-35.7 202.7 89.2 0.00 0.00 0.00
-36.7 202.7 89.2 0.00 0.00 0.00
-37.7 202.7 89.2 0.00 0.00 0.00
-38.7 202.7 89.2 0.00 0.00 0.00
-39.7 202.7 89.2 0.00 0.00 0.00
-40.7 202.7 89.2 0.00 0.00 0.00
-41.7 202.7 89.2 0.00 0.00 0.00
-42.7 202.7 89.2 0.00 0.00 0.00
-43.7 202.7 89.2 0.00 0.00 0.00
-44.7 202.7 89.2 0.00 0.00 0.00
-45.7 202.7 89.2 0.00 0.00 0.00
-46.7 202.7 89.2 0.00 0.00 0.00
-47.7 202.7 89.2 0.00 0.00 0.00
-48.7 202.7 89.2 0.00 0.00 0.00
-49.7 202.7 89.2 0.00 0.00 0.00
-50.7 202.7 89.2 0.00 0.00 0.00
-51.7 202.7 89.2 0.00 0.00 0.00
-52.7 202.7 89.2 0.00 0.00 0.00
-53.7 202.7 89.2 0.00 0.00 0.00
-54.7 202.7 89.2 0.00 0.00 0.00
-55.7 202.7 89.2 0.00 0.00 0.00
-56.7 202.7 89.2 0.00 0.00 0.00
-57.7 202.7 89.2 0.00 0.00 0.00
-58.7 202.7 89.2 0.00 0.00 0.00
-59.7 202.7 89.2 0.00 0.00 0.00
-60.7 202.7 89.2 0.00 0.00 0.00
-61.7 202.7 89.2 0.00 0.00 0.00
-62.7 202.7 89.2 0.00 0.00 0.00
-63.7 202.7 89.2 0.00 0.00 0.00
-64.7 202.7 89.2 0.00 0.00 0.00
-65.7 202.7 89.2 0.00 0.00 0.00
-66.7 202.7 89.2 0.00 0.00 0.00
-67.7 202.7 89.2 0.00 0.00 0.00
-68.7 202.7 89.2 0.00 0.00 0.00
-69.7 202.7 89.2 0.00 0.00 0.00
-70.7 202.7 89.2 0.00 0.00 0.00
-71.7 202.7 89.2 0.00 0.00 0.00
-72.7 202.7 89.2 0.00 0.00 0.00
-73.7 202.7 89.2 0.00 0.00 0.00
-74.7 202.7 89.2 0.00 0.00 0.00
-75.7 202.7 89.2 0.00 0.00 0.00
-76.7 202.7 89.2 0.00 0.00 0.00
-77.7 202.7 89.2 0.00 0.00 0.00
-78.7 202.7 89.2 0.00 0.00 0.00
-79.7 202.7 89.2 0.00 0.00 0.00
-30.7 205.7 92.7 0.00 0.00 0.00
-31.7 205.7 92.7 0.00 0.00 0.00
-32.7 205.7 92.7 0.00 0.00 0.00
-33.7 205.7 92.7 0.00 0.00 0.00
-34.7 205.7 92.7 0.00 0.00 0.00
-35.7 205.7 92.7 0.00 0.00 0.00
-36.7 205.7 92.7 0.00 0.00 0.00
-37.7 205.7 92.7 0.00 0.00 0.00
-38.7 205.7 92.7 0.00 0.00 0.00
-39.7 205.7 92.7 0.00 0.00 0.00
-40.7 205.7 92.7 0.00 0.00 0.00
-41.7 205.7 92.7 0.00 0.00 0.00
-42.7 205.7 92.7 0.00 0.00 0.00
-43.7 205.7 92.7 0.00 0.00 0.00
-44.7 205.7 92.7 0.00 0.00 0.00
-45.7 205.7 92.7 0.00 0.00 0.00
-46.7 205.7 92.7 0.00 0.00 0.00
-47.7 205.7 92.7 0.00 0.00 0.00
-48.7 205.7 92.7 0.00 0.00 0.00
-49.7 205.7 92.7 0.00 0.00 0.00
-50.7 205.7 92.7 0.00 0.00 0.00
-51.7 205.7 92.7 0.00 0.00 0.00
-52.7 205.7 92.7 0.00 0.00 0.00
-53.7 205.7 92.7 0.00 0.00 0.00
-54.7 205.7 92.7 0.00 0.00 0.00
-55.7 205.7 92.7 0.00 0.00 0.00
-56.7 205.7 92.7 0.00 0.00 0.00
-57.7 205.7 92.7 0.00 0.00 0.00
-58.7 205.7 92.7 0.00 0.00 0.00
-59.7 205.7 92.7 0.00 0.00 0.00
-60.7 205.7 92.7 0.00 0.00 0.00
-61.7 205.7 92.7 0.00 0.00 0.00
-62.7 205.7 92.7 0.00 0.00 0.00
-63.7 205.7 92.7 0.00 0.00 0.00
-64.7 205.7 92.7 0.00 0.00 0.00
-65.7 205.7 92.7 0.00 0.00 0.00
-66.7 205.7 92.7 0.00 0.00 0.00
-67.7 205.7 92.7 0.00 0.00 0.00
-68.7 205.7 92.7 0.00 0.00 0.00
-69.7 205.7 92.7 0.00 0.00 0.00
-70.7 205.7 92.7 0.00 0.00 0.00
-71.7 205.7 92.7 0.00 0.00 0.00
-72.7 205.7 92.7 0.00 0.00 0.00
-73.7 205.7 92.7 0.00 0.00 0.00
-74.7 205.7 92.7 0.00 0.00 0.00
-75.7 205.7 92.7 0.00 0.00 0.00
-76.7 205.7 92.7 0.00 0.00 0.00
-77.7 205.7 92.7 0.00 0.00 0.00
-78.7 205.7 92.7 0.00 0.00 0.00
-79.7 205.7 92.7 0.00 0.00 0.00
-30.7 208.2 96.3 0.00 0.00 0.00
-31.7 208.2 96.3 0.00 0.00 0.00
-32.7 208.2 96.3 0.00 0.00 0.00
-33.7 208.2 96.3 0.00 0.00 0.00
-34.7 208.2 96.3 0.00 0.00 0.00
-35.7 208.2 96.3 0.00 0.00 0.00
-36.7 208.2 96.3 0.00 0.00 0.00
-37.7 208.2 96.3 0.00 0.00 0.00
-38.7 208.2 96.3 0.00 0.00 0.00
-39.7 208.2 96.3 0.00 0.00 0.00
-40.7 208.2 96.3 0.00 0.00 0.00
-41.7 208.2 96.3 0.00 0.00 0.00
-42.7 208.2 96.3 0.00 0.00 0.00
-43.7 208.2 96.3 0.00 0.00 0.00
-44.7 208.2 96.3 0.00 0.00 0.00
-45.7 208.2 96.3 0.00 0.00 0.00
-46.7 208.2 96.3 0.00 0.00 0.00
-47.7 208.2 96.3 0.00 0.00 0.00
-48.7 208.2 96.3 0.00 0.00 0.00
-49.7 208.2 96.3 0.00 0.00 0.00
-50.7 208.2 96.3 0.00 0.00 0.00
-51.7 208.2 96.3 0.00 0.00 0.00
-52.7 208.2 96.3 0.00 0.00 0.00
-53.7 208.2 96.3 0.00 0.00 0.00
-54.7 208.2 96.3 0.00 0.00 0.00
-55.7 208.2 96.3 0.00 0.00 0.00
-56.7 208.2 96.3 0.00 0.00 0.00
-57.7 208.2 96.3 0.00 0.00 0.00
-58.7 208.2 96.3 0.00 0.00 0.00
-59.7 208.2 96.3 0.00 0.00 0.00
-60.7 208.2 96.3 0.00 0.00 0.00
-61.7 208.2 96.3 0.00 0.00 0.00
-62.7 208.2 96.3 0.00 0.00 0.00
-63.7 208.2 96.3 0.00 0.00 0.00
-64.7 208.2 96.3 0.00 0.00 0.00
-65.7 208.2 96.3 0.00 0.00 0.00
-66.7 208.2 96.3 0.00 0.00 0.00
-67.7 208.2 96.3 0.00 0.00 0.00
-68.7 208.2 96.3 0.00 0.00 0.00
-69.7 208.2 96.3 0.00 0.00 0.00
-70.7 208.2 96.3 0.00 0.00 0.00
-71.7 208.2 96.3 0.00 0.00 0.00
-72.7 208.2 96.3 0.00 0.00 0.00
-73.7 208.2 96.3 0.00 0.00 0.00
-74.7 208.2 96.3 0.00 0.00 0.00
-75.7 208.2 96.3 0.00 0.00 0.00
-76.7 208.2 96.3 0.00 0.00 0.00
-77.7 208.2 96.3 0.00 0.00 0.00
-78.7 208.2 96.3 0.00 0.00 0.00
-79.7 208.2 96.3 0.00 0.00 0.00
-30.7 210.4 99.8 0.00 0.00 0.00
-31.7 210.4 99.8 0.00 0.00 0.00
-32.7 210.4 99.8 0.00 0.00 0.00
-33.7 210.4 99.8 0.00 0.00 0.00
-34.7 210.4 99.8 0.00 0.00 0.00
-35.7 210.4 99.8 0.00 0.00 0.00
-36.7 210.4 99.8 0.00 0.00 0.00
-37.7 210.4 99.8 0.00 0.00 0.00
-38.7 210.4 99.8 0.00 0.00 0.00
-39.7 210.4 99.8 0.00 0.00 0.00
-40.7 210.4 99.8 0.00 0.00 0.00
-41.7 210.4 99.8 0.00 0.00 0.00
-42.7 210.4 99.8 0.00 0.00 0.00
-43.7 210.4 99.8 0.00 0.00 0.00
-44.7 210.4 99.8 0.00 0.00 0.00
-45.7 210.4 99.8 0.00 0.00 0.00
-46.7 210.4 99.8 0.00 0.00 0.00
-47.7 210.4 99.8 0.00 0.00 0.00
-48.7 210.4 99.8 0.00 0.00 0.00
-49.7 210.4 99.8 0.00 0.00 0.00
-50.7 210.4 99.8 0.00 0.00 0.00
-51.7 210.4 99.8 0.00 0.00 0.00
-52.7 210.4 99.8 0.00 0.00 0.00
-53.7 210.4 99.8 0.00 0.00 0.00
-54.7 210.4 99.8 0.00 0.00 0.00
-55.7 210.4 99.8 0.00 0.00 0.00
-56.7 210.4 99.8 0.00 0.00 0.00
-57.7 210.4 99.8 0.00 0.00 0.00
-58.7 210.4 99.8 0.00 0.00 0.00
-59.7 210.4 99.8 0.00 0.00 0.00
-60.7 210.4 99.8 0.00 0.00 0.00
-61.7 210.4 99.8 0.00 0.00 0.00
-62.7 210.4 99.8 0.00 0.00 0.00
-63.7 210.4 99.8 0.00 0.00 0.00
-64.7 210.4 99.8 0.00 0.00 0.00
-65.7 210.4 99.8 0.00 0.00 0.00
-66.7 210.4 99.8 0.00 0.00 0.00
-67.7 210.4 99.8 0.00 0.00 0.00
-68.7 210.4 99.8 0.00 0.00 0.00
-69.7 210.4 99.8 0.00 0.00 0.00
-70.7 210.4 99.8 0.00 0.00 0.00
-71.7 210.4 99.8 0.00 0.00 0.00
-72.7 210.4 99.8 0.00 0.00 0.00
-73.7 210.4 99.8 0.00 0.00 0.00
-74.7 210.4 99.8 0.00 0.00 0.00
-75.7 210.4 99.8 0.00 0.00 0.00
-76.7 210.4 99.8 0.00 0.00 0.00
-77.7 210.4 99.8 0.00 0.00 0.00
-78.7 210.4 99.8 0.00 0.00 0.00
-79.7 210.4 99.8 0.00 0.00 0.00
-30.7 212.2 103.4 0.00 0.00 0.00
-31.7 212.2 103.4 0.00 0.00 0.00
-32.7 212.2 103.4 0.00 0.00 0.00
-33.7 212.2 103.4 0.00 0.00 0.00
-34.7 212.2 103.4 0.00 0.00 0.00
-35.7 212.2 103.4 0.00 0.00 0.00
-36.7 212.2 103.4 0.00 0.00 0.00
-37.7 212.2 103.4 0.00 0.00 0.00
-38.7 212.2 103.4 0.00 0.00 0.00
-39.7 212.2 103.4 0.00 0.00 0.00
-40.7 212.2 103.4 0.00 0.00 0.00
-41.7 212.2 103.4 0.00 0.00 0.00
-42.7 212.2 103.4 0.00 0.00 0.00
-43.7 212.2 103.4 0.00 0.00 0.00
-44.7 212.2 103.4 0.00 0.00 0.00
-45.7 212.2 103.4 0.00 0.00 0.00
-46.7 212.2 103.4 0.00 0.00 0.00
-47.7 212.2 103.4 0.00 0.00 0.00
-48.7 212.2 103.4 0.00 0.00 0.00
-49.7 212.2 103.4 0.00 0.00 0.00
-50.7 212.2 103.4 0.00 0.00 0.00
-51.7 212.2 103.4 0.00 0.00 0.00
-52.7 212.2 103.4 0.00 0.00 0.00
-53.7 212.2 103.4 0.00 0.00 0.00
-54.7 212.2 103.4 0.00 0.00 0.00
-55.7 212.2 103.4 0.00 0.00 0.00
-56.7 212.2 103.4 0.00 0.00 0.00
-57.7 212.2 103.4 0.00 0.00 0.00
-58.7 212.2 103.4 0.00 0.00 0.00
-59.7 212.2 103.4 0.00 0.00 0.00
-60.7 212.2 103.4 0.00 0.00 0.00
-61.7 212.2 103.4 0.00 0.00 0.00
-62.7 212.2 103.4 0.00 0.00 0.00
-63.7 212.2 103.4 0.00 0.00 0.00
-64.7 212.2 103.4 0.00 0.00 0.00
-65.7 212.2 103.4 0.00 0.00 0.00
-66.7 212.2 103.4 0.00 0.00 0.00
-67.7 212.2 103.4 0.00 0.00 0.00
-68.7 212.2 103.4 0.00 0.00 0.00
-69.7 212.2 103.4 0.00 0.00 0.00
-70.7 212.2 103.4 0.00 0.00 0.00
-71.7 212.2 103.4 0.00 0.00 0.00
-72.7 212.2 103.4 0.00 0.00 0.00
-73.7 212.2 103.4 0.00 0.00 0.00
-74.7 212.2 103.4 0.00 0.00 0.00
-75.7 212.2 103.4 0.00 0.00 0.00
-76.7 212.2 103.4 0.00 0.00 0.00
-77.7 212.2 103.4 0.00 0.00 0.00
-78.7 212.2 103.4 0.00 0.00 0.00
-79.7 212.2 103.4 0.00 0.00 0.00
-30.7 213.8 106.9 0.00 0.00 0.00
-31.7 213.8 106.9 0.00 0.00 0.00
-32.7 213.8 106.9 0.00 0.00 0.00
-33.7 213.8 106.9 0.00 0.00 0.00
-34.7 213.8 106.9 0.00 0.00 0.00
-35.7 213.8 106.9 0.00 0.00 0.00
-36.7 213.8 106.9 0.00 0.00 0.00
-37.7 213.8 106.9 0.00 0.00 0.00
-38.7 213.8 106.9 0.00 0.00 0.00
-39.7 213.8 106.9 0.00 0.00 0.00
-40.7 213.8 106.9 0.00 0.00 0.00
-41.7 213.8 106.9 0.00 0.00 0.00
-42.7 213.8 106.9 0.00 0.00 0.00
-43.7 213.8 106.9 0.00 0.00 0.00
-44.7 213.8 106.9 0.00 0.00 0.00
-45.7 213.8 106.9 0.00 0.00 0.00
-46.7 213.8 106.9 0.00 0.00 0.00
-47.7 213.8 106.9 0.00 0.00 0.00
-48.7 213.8 106.9 0.00 0.00 0.00
-49.7 213.8 106.9 0.00 0.00 0.00
-50.7 213.8 106.9 0.00 0.00 0.00
-51.7 213.8 106.9 0.00 0.00 0.00
-52.7 213.8 106.9 0.00 0.00 0.00
-53.7 213.8 106.9 0.00 0.00 0.00
-54.7 213.8 106.9 0.00 0.00 0.00
-55.7 213.8 106.9 0.00 0.00 0.00
-56.7 213.8 106.9 0.00 0.00 0.00
-57.7 213.8 106.9 0.00 0.00 0.00
-58.7 213.8 106.9 0.00 0.00 0.00
-59.7 213.8 106.9 0.00 0.00 0.00
-60.7 213.8 106.9 0.00 0.00 0.00
-61.7 213.8 106.9 0.00 0.00 0.00
-62.7 213.8 106.9 0.00 0.00 0.00
-63.7 213.8 106.9 0.00 0.00 0.00
-64.7 213.8 106.9 0.00 0.00 0.00
-65.7 213.8 106.9 0.00 0.00 0.00
-66.7 213.8 106.9 0.00 0.00 0.00
-67.7 213.8 106.9 0.00 0.00 0.00
-68.7 213.8 106.9 0.00 0.00 0.00
-69.7 213.8 106.9 0.00 0.00 0.00
-70.7 213.8 106.9 0.00 0.00 0.00
-71.7 213.8 106.9 0.00 0.00 0.00
-72.7 213.8 106.9 0.00 0.00 0.00
-73.7 213.8 106.9 0.00 0.00 0.00
-74.7 213.8 106.9 0.00 0.00 0.00
-75.7 213.8 106.9 0.00 0.00 0.00
-76.7 213.8 106.9 0.00 0.00 0.00
-77.7 213.8 106.9 0.00 0.00 0.00
-78.7 213.8 106.9 0.00 0.00 0.00
-79.7 213.8 106.9 0.00 0.00 0.00
-30.7 183.4 -18.1 0.00 0.00 0.00
-31.7 183.4 -18.1 0.00 0.00 0.00
-32.7 183.4 -18.1 0.00 0.00 0.00
-33.7 183.4 -18.1 0.00 0.00 0.00
-34.7 183.4 -18.1 0.00 0.00 0.00
-35.7 183.4 -18.1 0.00 0.00 0.00
-36.7 183.4 -18.1 0.00 0.00 0.00
-37.7 183.4 -18.1 0.00 0.00 0.00
-38.7 183.4 -18.1 0.00 0.00 0.00
-39.7 183.4 -18.1 0.00 0.00 0.00
-40.7 183.4 -18.1 0.00 0.00 0.00
-41.7 183.4 -18.1 0.00 0.00 0.00
-42.7 183.4 -18.1 0.00 0.00 0.00
-43.7 183.4 -18.1 0.00 0.00 0.00
-44.7 183.4 -18.1 0.00 0.00 0.00
-45.7 183.4 -18.1 0.00 0.00 0.00
-46.7 183.4 -18.1 0.00 0.00 0.00
-47.7 183.4 -18.1 0.00 0.00 0.00
-48.7 183.4 -18.1 0.00 0.00 0.00
-49.7 183.4 -18.1 0.00 0.00 0.00
-50.7 183.4 -18.1 0.00 0.00 0.00
-51.7 183.4 -18.1 0.00 0.00 0.00
-52.7 183.4 -18.1 0.00 0.00 0.00
-53.7 183.4 -18.1 0.00 0.00 0.00
-54.7 183.4 -18.1 0.00 0.00 0.00
-55.7 183.4 -18.1 0.00 0.00 0.00
-56.7 183.4 -18.1 0.00 0.00 0.00
-57.7 183.4 -18.1 0.00 0.00 0.00
-58.7 183.4 -18.1 0.00 0.00 0.00
-59.7 183.4 -18.1 0.00 0.00 0.00
-60.7 183.4 -18.1 0.00 0.00 0.00
-61.7 183.4 -18.1 0.00 0.00 0.00
-62.7 183.4 -18.1 0.00 0.00 0.00
-63.7 183.4 -18.1 0.00 0.00 0.00
-64.7 183.4 -18.1 0.00 0.00 0.00
-65.7 183.4 -18.1 0.00 0.00 0.00
-66.7 183.4 -18.1 0.00 0.00 0.00
-67.7 183.4 -18.1 0.00 0.00 0.00
-68.7 183.4 -18.1 0.00 0.00 0.00
-69.7 183.4 -18.1 0.00 0.00 0.00
-70.7 183.4 -18.1 0.00 0.00 0.00
-71.7 183.4 -18.1 0.00 0.00 0.00
-72.7 183.4 -18.1 0.00 0.00 0.00
-73.7 183.4 -18.1 0.00 0.00 0.00
-74.7 183.4 -18.1 0.00 0.00 0.00
-75.7 183.4 -18.1 0.00 0.00 0.00
-76.7 183.4 -18.1 0.00 0.00 0.00
-77.7 183.4 -18.1 0.00 0.00 0.00
-78.7 183.4 -18.1 0.00 0.00 0.00
-79.7 183.4 -18.1 0.00 0.00 0.00
-30.7 190 -21.7 0.00 0.00 0.00
-31.7 190 -21.7 0.00 0.00 0.00
-32.7 190 -21.7 0.00 0.00 0.00
-33.7 190 -21.7 0.00 0.00 0.00
