-74.8 181 34.8 0.00 0.00 0.00
-77.2 181 34.8 0.00 0.00 0.00
-62.5 181 33.9 0.00 0.00 0.00
-65 181 33.9 0.00 0.00 0.00
-67.4 181 33.9 0.00 0.00 0.00
-69.9 181 33.9 0.00 0.00 0.00
-72.3 181 33.9 0.00 0.00 0.00
-74.8 181 33.9 0.00 0.00 0.00
-77.2 181 33.9 0.00 0.00 0.00
-62.5 181 33 0.00 0.00 0.00
-65 181 33 0.00 0.00 0.00
-67.4 181 33 0.00 0.00 0.00
-69.9 181 33 0.00 0.00 0.00
-72.3 181 33 0.00 0.00 0.00
-74.8 181 33 0.00 0.00 0.00
-77.2 181 33 0.00 0.00 0.00
-62.5 181 32 0.00 0.00 0.00
-65 181 32 0.00 0.00 0.00
-67.4 181 32 0.00 0.00 0.00
-69.9 181 32 0.00 0.00 0.00
-72.3 181 32 0.00 0.00 0.00
-74.8 181 32 0.00 0.00 0.00
-77.2 181 32 0.00 0.00 0.00
-62.5 181 31.1 0.00 0.00 0.00
-65 181 31.1 0.00 0.00 0.00
-67.4 181 31.1 0.00 0.00 0.00
-69.9 181 31.1 0.00 0.00 0.00
-72.3 181 31.1 0.00 0.00 0.00
-74.8 181 31.1 0.00 0.00 0.00
-77.2 181 31.1 0.00 0.00 0.00
-62.5 181 30.2 0.00 0.00 0.00
-65 181 30.2 0.00 0.00 0.00
-67.4 181 30.2 0.00 0.00 0.00
-69.9 181 30.2 0.00 0.00 0.00
-72.3 181 30.2 0.00 0.00 0.00
-74.8 181 30.2 0.00 0.00 0.00
-77.2 181 30.2 0.00 0.00 0.00
-62.5 181 29.3 0.00 0.00 0.00
-65 181 29.3 0.00 0.00 0.00
-67.4 181 29.3 0.00 0.00 0.00
-69.9 181 29.3 0.00 0.00 0.00
-72.3 181 29.3 0.00 0.00 0.00
-74.8 181 29.3 0.00 0.00 0.00
-77.2 181 29.3 0.00 0.00 0.00
-62.5 181 28.4 0.00 0.00 0.00
-65 181 28.4 0.00 0.00 0.00
-67.4 181 28.4 0.00 0.00 0.00
-69.9 181 28.4 0.00 0.00 0.00
-72.3 181 28.4 0.00 0.00 0.00
-74.8 181 28.4 0.00 0.00 0.00
-77.2 181 28.4 0.00 0.00 0.00
-62.5 181 27.5 0.00 0.00 0.00
-65 181 27.5 0.00 0.00 0.00
-67.4 181 27.5 0.00 0.00 0.00
-69.9 181 27.5 0.00 0.00 0.00
-72.3 181 27.5 0.00 0.00 0.00
-74.8 181 27.5 0.00 0.00 0.00
-77.2 181 27.5 0.00 0.00 0.00
-62.5 181 26.6 0.00 0.00 0.00
-65 181 26.6 0.00 0.00 0.00
-67.4 181 26.6 0.00 0.00 0.00
-69.9 181 26.6 0.00 0.00 0.00
-72.3 181 26.6 0.00 0.00 0.00
-74.8 181 26.6 0.00 0.00 0.00
-77.2 181 26.6 0.00 0.00 0.00
-62.5 181 25.7 0.00 0.00 0.00
-65 181 25.7 0.00 0.00 0.00
-67.4 181 25.7 0.00 0.00 0.00
-69.9 181 25.7 0.00 0.00 0.00
-72.3 181 25.7 0.00 0.00 0.00
-74.8 181 25.7 0.00 0.00 0.00
-77.2 181 25.7 0.00 0.00 0.00
-62.5 181 24.8 0.00 0.00 0.00
-65 181 24.8 0.00 0.00 0.00
-67.4 181 24.8 0.00 0.00 0.00
-69.9 181 24.8 0.00 0.00 0.00
-72.3 181 24.8 0.00 0.00 0.00
-74.8 181 24.8 0.00 0.00 0.00
-77.2 181 24.8 0.00 0.00 0.00
-62.5 181 23.9 0.00 0.00 0.00
-65 181 23.9 0.00 0.00 0.00
-67.4 181 23.9 0.00 0.00 0.00
-69.9 181 23.9 0.00 0.00 0.00
-72.3 181 23.9 0.00 0.00 0.00
-74.8 181 23.9 0.00 0.00 0.00
-77.2 181 23.9 0.00 0.00 0.00
-62.5 181 23 0.00 0.00 0.00
-65 181 23 0.00 0.00 0.00
-67.4 181 23 0.00 0.00 0.00
-69.9 181 23 0.00 0.00 0.00
-72.3 181 23 0.00 0.00 0.00
-74.8 181 23 0.00 0.00 0.00
-77.2 181 23 0.00 0.00 0.00
-62.5 181 22 0.00 0.00 0.00
-65 181 22 0.00 0.00 0.00
-67.4 181 22 0.00 0.00 0.00
-69.9 181 22 0.00 0.00 0.00
-72.3 181 22 0.00 0.00 0.00
-74.8 181 22 0.00 0.00 0.00
-77.2 181 22 0.00 0.00 0.00
-62.5 181 21.1 0.00 0.00 0.00
-65 181 21.1 0.00 0.00 0.00
-67.4 181 21.1 0.00 0.00 0.00
-69.9 181 21.1 0.00 0.00 0.00
-72.3 181 21.1 0.00 0.00 0.00
-74.8 181 21.1 0.00 0.00 0.00
-77.2 181 21.1 0.00 0.00 0.00
-62.5 181 20.2 0.00 0.00 0.00
-65 181 20.2 0.00 0.00 0.00
-67.4 181 20.2 0.00 0.00 0.00
-69.9 181 20.2 0.00 0.00 0.00
-72.3 181 20.2 0.00 0.00 0.00
-74.8 181 20.2 0.00 0.00 0.00
-77.2 181 20.2 0.00 0.00 0.00
-62.5 181 19.3 0.00 0.00 0.00
-65 181 19.3 0.00 0.00 0.00
-67.4 181 19.3 0.00 0.00 0.00
-69.9 181 19.3 0.00 0.00 0.00
-72.3 181 19.3 0.00 0.00 0.00
-74.8 181 19.3 0.00 0.00 0.00
-77.2 181 19.3 0.00 0.00 0.00
-62.5 181 18.4 0.00 0.00 0.00
-65 181 18.4 0.00 0.00 0.00
-67.4 181 18.4 0.00 0.00 0.00
-69.9 181 18.4 0.00 0.00 0.00
-72.3 181 18.4 0.00 0.00 0.00
-74.8 181 18.4 0.00 0.00 0.00
-77.2 181 18.4 0.00 0.00 0.00
-62.5 181 17.5 0.00 0.00 0.00
-65 181 17.5 0.00 0.00 0.00
-67.4 181 17.5 0.00 0.00 0.00
-69.9 181 17.5 0.00 0.00 0.00
-72.3 181 17.5 0.00 0.00 0.00
-74.8 181 17.5 0.00 0.00 0.00
-77.2 181 17.5 0.00 0.00 0.00
-62.5 181 16.6 0.00 0.00 0.00
-65 181 16.6 0.00 0.00 0.00
-67.4 181 16.6 0.00 0.00 0.00
-69.9 181 16.6 0.00 0.00 0.00
-72.3 181 16.6 0.00 0.00 0.00
-74.8 181 16.6 0.00 0.00 0.00
-77.2 181 16.6 0.00 0.00 0.00
-62.5 181 15.7 0.00 0.00 0.00
-65 181 15.7 0.00 0.00 0.00
-67.4 181 15.7 0.00 0.00 0.00
-69.9 181 15.7 0.00 0.00 0.00
-72.3 181 15.7 0.00 0.00 0.00
-74.8 181 15.7 0.00 0.00 0.00
-77.2 181 15.7 0.00 0.00 0.00
-62.5 181 14.8 0.00 0.00 0.00
-65 181 14.8 0.00 0.00 0.00
-67.4 181 14.8 0.00 0.00 0.00
-69.9 181 14.8 0.00 0.00 0.00
-72.3 181 14.8 0.00 0.00 0.00
-74.8 181 14.8 0.00 0.00 0.00
-77.2 181 14.8 0.00 0.00 0.00
-62.5 181 13.9 0.00 0.00 0.00
-65 181 13.9 0.00 0.00 0.00
-67.4 181 13.9 0.00 0.00 0.00
-69.9 181 13.9 0.00 0.00 0.00
-72.3 181 13.9 0.00 0.00 0.00
-74.8 181 13.9 0.00 0.00 0.00
-77.2 181 13.9 0.00 0.00 0.00
-62.5 181 12.9 0.00 0.00 0.00
-65 181 12.9 0.00 0.00 0.00
-67.4 181 12.9 0.00 0.00 0.00
-69.9 181 12.9 0.00 0.00 0.00
-72.3 181 12.9 0.00 0.00 0.00
-74.8 181 12.9 0.00 0.00 0.00
-77.2 181 12.9 0.00 0.00 0.00
-62.5 181 12 0.00 0.00 0.00
-65 181 12 0.00 0.00 0.00
-67.4 181 12 0.00 0.00 0.00
-69.9 181 12 0.00 0.00 0.00
-72.3 181 12 0.00 0.00 0.00
-74.8 181 12 0.00 0.00 0.00
-77.2 181 12 0.00 0.00 0.00
-62.5 181 11.1 0.00 0.00 0.00
-65 181 11.1 0.00 0.00 0.00
-67.4 181 11.1 0.00 0.00 0.00
-69.9 181 11.1 0.00 0.00 0.00
-72.3 181 11.1 0.00 0.00 0.00
-74.8 181 11.1 0.00 0.00 0.00
-77.2 181 11.1 0.00 0.00 0.00
-62.5 181 10.2 0.00 0.00 0.00
-65 181 10.2 0.00 0.00 0.00
-67.4 181 10.2 0.00 0.00 0.00
-69.9 181 10.2 0.00 0.00 0.00
-72.3 181 10.2 0.00 0.00 0.00
-74.8 181 10.2 0.00 0.00 0.00
-77.2 181 10.2 0.00 0.00 0.00
-62.5 181 9.3 0.00 0.00 0.00
-65 181 9.3 0.00 0.00 0.00
-67.4 181 9.3 0.00 0.00 0.00
-69.9 181 9.3 0.00 0.00 0.00
-72.3 181 9.3 0.00 0.00 0.00
-74.8 181 9.3 0.00 0.00 0.00
-77.2 181 9.3 0.00 0.00 0.00
-62.5 181 8.4 0.00 0.00 0.00
-65 181 8.4 0.00 0.00 0.00
-67.4 181 8.4 0.00 0.00 0.00
-69.9 181 8.4 0.00 0.00 0.00
-72.3 181 8.4 0.00 0.00 0.00
-74.8 181 8.4 0.00 0.00 0.00
-77.2 181 8.4 0.00 0.00 0.00
-62.5 181 7.5 0.00 0.00 0.00
-65 181 7.5 0.00 0.00 0.00
-67.4 181 7.5 0.00 0.00 0.00
-69.9 181 7.5 0.00 0.00 0.00
-72.3 181 7.5 0.00 0.00 0.00
-74.8 181 7.5 0.00 0.00 0.00
-77.2 181 7.5 0.00 0.00 0.00
-62.5 181 6.6 0.00 0.00 0.00
-65 181 6.6 0.00 0.00 0.00
-67.4 181 6.6 0.00 0.00 0.00
-69.9 181 6.6 0.00 0.00 0.00
-72.3 181 6.6 0.00 0.00 0.00
-74.8 181 6.6 0.00 0.00 0.00
-77.2 181 6.6 0.00 0.00 0.00
-62.5 181 5.7 0.00 0.00 0.00
-65 181 5.7 0.00 0.00 0.00
-67.4 181 5.7 0.00 0.00 0.00
-69.9 181 5.7 0.00 0.00 0.00
-72.3 181 5.7 0.00 0.00 0.00
-74.8 181 5.7 0.00 0.00 0.00
-77.2 181 5.7 0.00 0.00 0.00
-62.5 181 4.8 0.00 0.00 0.00
-65 181 4.8 0.00 0.00 0.00
-67.4 181 4.8 0.00 0.00 0.00
-69.9 181 4.8 0.00 0.00 0.00
-72.3 181 4.8 0.00 0.00 0.00
-74.8 181 4.8 0.00 0.00 0.00
-77.2 181 4.8 0.00 0.00 0.00
-62.5 181 3.8 0.00 0.00 0.00
-65 181 3.8 0.00 0.00 0.00
-67.4 181 3.8 0.00 0.00 0.00
-69.9 181 3.8 0.00 0.00 0.00
-72.3 181 3.8 0.00 0.00 0.00
-74.8 181 3.8 0.00 0.00 0.00
-77.2 181 3.8 0.00 0.00 0.00
-62.5 181 2.9 0.00 0.00 0.00
-65 181 2.9 0.00 0.00 0.00
-67.4 181 2.9 0.00 0.00 0.00
-69.9 181 2.9 0.00 0.00 0.00
-72.3 181 2.9 0.00 0.00 0.00
-74.8 181 2.9 0.00 0.00 0.00
-77.2 181 2.9 0.00 0.00 0.00
-62.5 181 2 0.00 0.00 0.00
-65 181 2 0.00 0.00 0.00
-67.4 181 2 0.00 0.00 0.00
-69.9 181 2 0.00 0.00 0.00
-72.3 181 2 0.00 0.00 0.00
-74.8 181 2 0.00 0.00 0.00
-77.2 181 2 0.00 0.00 0.00
-62.5 181 1.1 0.00 0.00 0.00
-65 181 1.1 0.00 0.00 0.00
-67.4 181 1.1 0.00 0.00 0.00
-69.9 181 1.1 0.00 0.00 0.00
-72.3 181 1.1 0.00 0.00 0.00
-74.8 181 1.1 0.00 0.00 0.00
-77.2 181 1.1 0.00 0.00 0.00
-62.5 181 0.2 0.00 0.00 0.00
-65 181 0.2 0.00 0.00 0.00
-67.4 181 0.2 0.00 0.00 0.00
-69.9 181 0.2 0.00 0.00 0.00
-72.3 181 0.2 0.00 0.00 0.00
-74.8 181 0.2 0.00 0.00 0.00
-77.2 181 0.2 0.00 0.00 0.00
-62.5 181 -0.7 0.00 0.00 0.00
-65 181 -0.7 0.00 0.00 0.00
-67.4 181 -0.7 0.00 0.00 0.00
-69.9 181 -0.7 0.00 0.00 0.00
-72.3 181 -0.7 0.00 0.00 0.00
-74.8 181 -0.7 0.00 0.00 0.00
-77.2 181 -0.7 0.00 0.00 0.00
-62.5 181 -1.6 0.00 0.00 0.00
-65 181 -1.6 0.00 0.00 0.00
-67.4 181 -1.6 0.00 0.00 0.00
-69.9 181 -1.6 0.00 0.00 0.00
-72.3 181 -1.6 0.00 0.00 0.00
-74.8 181 -1.6 0.00 0.00 0.00
-77.2 181 -1.6 0.00 0.00 0.00
-62.5 181 -2.5 0.00 0.00 0.00
-65 181 -2.5 0.00 0.00 0.00
-67.4 181 -2.5 0.00 0.00 0.00
-69.9 181 -2.5 0.00 0.00 0.00
-72.3 181 -2.5 0.00 0.00 0.00
-74.8 181 -2.5 0.00 0.00 0.00
-77.2 181 -2.5 0.00 0.00 0.00
-62.5 181 -3.4 0.00 0.00 0.00
-65 181 -3.4 0.00 0.00 0.00
-67.4 181 -3.4 0.00 0.00 0.00
-69.9 181 -3.4 0.00 0.00 0.00
-72.3 181 -3.4 0.00 0.00 0.00
-74.8 181 -3.4 0.00 0.00 0.00
-77.2 181 -3.4 0.00 0.00 0.00
-62.5 181 -4.3 0.00 0.00 0.00
-65 181 -4.3 0.00 0.00 0.00
-67.4 181 -4.3 0.00 0.00 0.00
-69.9 181 -4.3 0.00 0.00 0.00
-72.3 181 -4.3 0.00 0.00 0.00
-74.8 181 -4.3 0.00 0.00 0.00
-77.2 181 -4.3 0.00 0.00 0.00
-62.5 181 -5.2 0.00 0.00 0.00
-65 181 -5.2 0.00 0.00 0.00
-67.4 181 -5.2 0.00 0.00 0.00
-69.9 181 -5.2 0.00 0.00 0.00
-72.3 181 -5.2 0.00 0.00 0.00
-74.8 181 -5.2 0.00 0.00 0.00
-77.2 181 -5.2 0.00 0.00 0.00
-62.5 181.8 42.2 0.00 0.00 0.00
-65 181.8 42.2 0.00 0.00 0.00
-67.4 181.8 42.2 0.00 0.00 0.00
-69.9 181.8 42.2 0.00 0.00 0.00
-72.3 181.8 42.2 0.00 0.00 0.00
-74.8 181.8 42.2 0.00 0.00 0.00
-77.2 181.8 42.2 0.00 0.00 0.00
-62.5 181.8 41.2 0.00 0.00 0.00
-65 181.8 41.2 0.00 0.00 0.00
-67.4 181.8 41.2 0.00 0.00 0.00
-69.9 181.8 41.2 0.00 0.00 0.00
-72.3 181.8 41.2 0.00 0.00 0.00
-74.8 181.8 41.2 0.00 0.00 0.00
-77.2 181.8 41.2 0.00 0.00 0.00
-62.5 181.8 40.3 0.00 0.00 0.00
-65 181.8 40.3 0.00 0.00 0.00
-67.4 181.8 40.3 0.00 0.00 0.00
-69.9 181.8 40.3 0.00 0.00 0.00
-72.3 181.8 40.3 0.00 0.00 0.00
-74.8 181.8 40.3 0.00 0.00 0.00
-77.2 181.8 40.3 0.00 0.00 0.00
-62.5 181.8 39.4 0.00 0.00 0.00
-65 181.8 39.4 0.00 0.00 0.00
-67.4 181.8 39.4 0.00 0.00 0.00
-69.9 181.8 39.4 0.00 0.00 0.00
-72.3 181.8 39.4 0.00 0.00 0.00
-74.8 181.8 39.4 0.00 0.00 0.00
-77.2 181.8 39.4 0.00 0.00 0.00
-62.5 181.8 38.5 0.00 0.00 0.00
-65 181.8 38.5 0.00 0.00 0.00
-67.4 181.8 38.5 0.00 0.00 0.00
-69.9 181.8 38.5 0.00 0.00 0.00
-72.3 181.8 38.5 0.00 0.00 0.00
-74.8 181.8 38.5 0.00 0.00 0.00
-77.2 181.8 38.5 0.00 0.00 0.00
-62.5 181.8 37.6 0.00 0.00 0.00
-65 181.8 37.6 0.00 0.00 0.00
-67.4 181.8 37.6 0.00 0.00 0.00
-69.9 181.8 37.6 0.00 0.00 0.00
-72.3 181.8 37.6 0.00 0.00 0.00
-74.8 181.8 37.6 0.00 0.00 0.00
-77.2 181.8 37.6 0.00 0.00 0.00
-62.5 181.8 36.7 0.00 0.00 0.00
-65 181.8 36.7 0.00 0.00 0.00
-67.4 181.8 36.7 0.00 0.00 0.00
-69.9 181.8 36.7 0.00 0.00 0.00
-72.3 181.8 36.7 0.00 0.00 0.00
-74.8 181.8 36.7 0.00 0.00 0.00
-77.2 181.8 36.7 0.00 0.00 0.00
-62.5 181.8 35.7 0.00 0.00 0.00
-65 181.8 35.7 0.00 0.00 0.00
-67.4 181.8 35.7 0.00 0.00 0.00
-69.9 181.8 35.7 0.00 0.00 0.00
-72.3 181.8 35.7 0.00 0.00 0.00
-74.8 181.8 35.7 0.00 0.00 0.00
-77.2 181.8 35.7 0.00 0.00 0.00
-62.5 181.8 34.8 0.00 0.00 0.00
-65 181.8 34.8 0.00 0.00 0.00
-67.4 181.8 34.8 0.00 0.00 0.00
-69.9 181.8 34.8 0.00 0.00 0.00
-72.3 181.8 34.8 0.00 0.00 0.00
-74.8 181.8 34.8 0.00 0.00 0.00
-77.2 181.8 34.8 0.00 0.00 0.00
-62.5 181.8 33.9 0.00 0.00 0.00
-65 181.8 33.9 0.00 0.00 0.00
-67.4 181.8 33.9 0.00 0.00 0.00
-69.9 181.8 33.9 0.00 0.00 0.00
-72.3 181.8 33.9 0.00 0.00 0.00
-74.8 181.8 33.9 0.00 0.00 0.00
-77.2 181.8 33.9 0.00 0.00 0.00
-62.5 181.8 33 0.00 0.00 0.00
-65 181.8 33 0.00 0.00 0.00
-67.4 181.8 33 0.00 0.00 0.00
-69.9 181.8 33 0.00 0.00 0.00
-72.3 181.8 33 0.00 0.00 0.00
-74.8 181.8 33 0.00 0.00 0.00
-77.2 181.8 33 0.00 0.00 0.00
-62.5 181.8 32.1 0.00 0.00 0.00
-65 181.8 32.1 0.00 0.00 0.00
-67.4 181.8 32.1 0.00 0.00 0.00
-69.9 181.8 32.1 0.00 0.00 0.00
-72.3 181.8 32.1 0.00 0.00 0.00
-74.8 181.8 32.1 0.00 0.00 0.00
-77.2 181.8 32.1 0.00 0.00 0.00
-62.5 181.8 31.2 0.00 0.00 0.00
-65 181.8 31.2 0.00 0.00 0.00
-67.4 181.8 31.2 0.00 0.00 0.00
-69.9 181.8 31.2 0.00 0.00 0.00
-72.3 181.8 31.2 0.00 0.00 0.00
-74.8 181.8 31.2 0.00 0.00 0.00
-77.2 181.8 31.2 0.00 0.00 0.00
-62.5 181.8 30.2 0.00 0.00 0.00
-65 181.8 30.2 0.00 0.00 0.00
-67.4 181.8 30.2 0.00 0.00 0.00
-69.9 181.8 30.2 0.00 0.00 0.00
-72.3 181.8 30.2 0.00 0.00 0.00
-74.8 181.8 30.2 0.00 0.00 0.00
-77.2 181.8 30.2 0.00 0.00 0.00
-62.5 181.8 29.3 0.00 0.00 0.00
-65 181.8 29.3 0.00 0.00 0.00
-67.4 181.8 29.3 0.00 0.00 0.00
-69.9 181.8 29.3 0.00 0.00 0.00
-72.3 181.8 29.3 0.00 0.00 0.00
-74.8 181.8 29.3 0.00 0.00 0.00
-77.2 181.8 29.3 0.00 0.00 0.00
-62.5 181.8 28.4 0.00 0.00 0.00
-65 181.8 28.4 0.00 0.00 0.00
-67.4 181.8 28.4 0.00 0.00 0.00
-69.9 181.8 28.4 0.00 0.00 0.00
-72.3 181.8 28.4 0.00 0.00 0.00
-74.8 181.8 28.4 0.00 0.00 0.00
-77.2 181.8 28.4 0.00 0.00 0.00
-62.5 181.8 27.5 0.00 0.00 0.00
-65 181.8 27.5 0.00 0.00 0.00
-67.4 181.8 27.5 0.00 0.00 0.00
-69.9 181.8 27.5 0.00 0.00 0.00
-72.3 181.8 27.5 0.00 0.00 0.00
-74.8 181.8 27.5 0.00 0.00 0.00
-77.2 181.8 27.5 0.00 0.00 0.00
-62.5 181.8 26.6 0.00 0.00 0.00
-65 181.8 26.6 0.00 0.00 0.00
-67.4 181.8 26.6 0.00 0.00 0.00
-69.9 181.8 26.6 0.00 0.00 0.00
-72.3 181.8 26.6 0.00 0.00 0.00
-74.8 181.8 26.6 0.00 0.00 0.00
-77.2 181.8 26.6 0.00 0.00 0.00
-62.5 181.8 25.7 0.00 0.00 0.00
-65 181.8 25.7 0.00 0.00 0.00
-67.4 181.8 25.7 0.00 0.00 0.00
-69.9 181.8 25.7 0.00 0.00 0.00
-72.3 181.8 25.7 0.00 0.00 0.00
-74.8 181.8 25.7 0.00 0.00 0.00
-77.2 181.8 25.7 0.00 0.00 0.00
-62.5 181.8 24.7 0.00 0.00 0.00
-65 181.8 24.7 0.00 0.00 0.00
-67.4 181.8 24.7 0.00 0.00 0.00
-69.9 181.8 24.7 0.00 0.00 0.00
-72.3 181.8 24.7 0.00 0.00 0.00
-74.8 181.8 24.7 0.00 0.00 0.00
-77.2 181.8 24.7 0.00 0.00 0.00
-62.5 181.8 23.8 0.00 0.00 0.00
-65 181.8 23.8 0.00 0.00 0.00
-67.4 181.8 23.8 0.00 0.00 0.00
-69.9 181.8 23.8 0.00 0.00 0.00
-72.3 181.8 23.8 0.00 0.00 0.00
-74.8 181.8 23.8 0.00 0.00 0.00
-77.2 181.8 23.8 0.00 0.00 0.00
-62.5 181.8 22.9 0.00 0.00 0.00
-65 181.8 22.9 0.00 0.00 0.00
-67.4 181.8 22.9 0.00 0.00 0.00
-69.9 181.8 22.9 0.00 0.00 0.00
-72.3 181.8 22.9 0.00 0.00 0.00
-74.8 181.8 22.9 0.00 0.00 0.00
-77.2 181.8 22.9 0.00 0.00 0.00
-62.5 181.8 22 0.00 0.00 0.00
-65 181.8 22 0.00 0.00 0.00
-67.4 181.8 22 0.00 0.00 0.00
-69.9 181.8 22 0.00 0.00 0.00
-72.3 181.8 22 0.00 0.00 0.00
-74.8 181.8 22 0.00 0.00 0.00
-77.2 181.8 22 0.00 0.00 0.00
-62.5 181.8 21.1 0.00 0.00 0.00
-65 181.8 21.1 0.00 0.00 0.00
-67.4 181.8 21.1 0.00 0.00 0.00
-69.9 181.8 21.1 0.00 0.00 0.00
-72.3 181.8 21.1 0.00 0.00 0.00
-74.8 181.8 21.1 0.00 0.00 0.00
-77.2 181.8 21.1 0.00 0.00 0.00
-62.5 181.8 20.2 0.00 0.00 0.00
-65 181.8 20.2 0.00 0.00 0.00
-67.4 181.8 20.2 0.00 0.00 0.00
-69.9 181.8 20.2 0.00 0.00 0.00
-72.3 181.8 20.2 0.00 0.00 0.00
-74.8 181.8 20.2 0.00 0.00 0.00
-77.2 181.8 20.2 0.00 0.00 0.00
-62.5 181.8 19.2 0.00 0.00 0.00
-65 181.8 19.2 0.00 0.00 0.00
-67.4 181.8 19.2 0.00 0.00 0.00
-69.9 181.8 19.2 0.00 0.00 0.00
-72.3 181.8 19.2 0.00 0.00 0.00
-74.8 181.8 19.2 0.00 0.00 0.00
-77.2 181.8 19.2 0.00 0.00 0.00
-62.5 181.8 18.3 0.00 0.00 0.00
-65 181.8 18.3 0.00 0.00 0.00
-67.4 181.8 18.3 0.00 0.00 0.00
-69.9 181.8 18.3 0.00 0.00 0.00
-72.3 181.8 18.3 0.00 0.00 0.00
-74.8 181.8 18.3 0.00 0.00 0.00
-77.2 181.8 18.3 0.00 0.00 0.00
-62.5 181.8 17.4 0.00 0.00 0.00
-65 181.8 17.4 0.00 0.00 0.00
-67.4 181.8 17.4 0.00 0.00 0.00
-69.9 181.8 17.4 0.00 0.00 0.00
-72.3 181.8 17.4 0.00 0.00 0.00
-74.8 181.8 17.4 0.00 0.00 0.00
-77.2 181.8 17.4 0.00 0.00 0.00
-62.5 181.8 16.5 0.00 0.00 0.00
-65 181.8 16.5 0.00 0.00 0.00
-67.4 181.8 16.5 0.00 0.00 0.00
-69.9 181.8 16.5 0.00 0.00 0.00
-72.3 181.8 16.5 0.00 0.00 0.00
-74.8 181.8 16.5 0.00 0.00 0.00
-77.2 181.8 16.5 0.00 0.00 0.00
-62.5 181.8 15.6 0.00 0.00 0.00
-65 181.8 15.6 0.00 0.00 0.00
-67.4 181.8 15.6 0.00 0.00 0.00
-69.9 181.8 15.6 0.00 0.00 0.00
-72.3 181.8 15.6 0.00 0.00 0.00
-74.8 181.8 15.6 0.00 0.00 0.00
-77.2 181.8 15.6 0.00 0.00 0.00
-62.5 181.8 14.7 0.00 0.00 0.00
-65 181.8 14.7 0.00 0.00 0.00
-67.4 181.8 14.7 0.00 0.00 0.00
-69.9 181.8 14.7 0.00 0.00 0.00
-72.3 181.8 14.7 0.00 0.00 0.00
-74.8 181.8 14.7 0.00 0.00 0.00
-77.2 181.8 14.7 0.00 0.00 0.00
-62.5 181.8 13.7 0.00 0.00 0.00
-65 181.8 13.7 0.00 0.00 0.00
-67.4 181.8 13.7 0.00 0.00 0.00
-69.9 181.8 13.7 0.00 0.00 0.00
-72.3 181.8 13.7 0.00 0.00 0.00
-74.8 181.8 13.7 0.00 0.00 0.00
-77.2 181.8 13.7 0.00 0.00 0.00
-62.5 181.8 12.8 0.00 0.00 0.00
-65 181.8 12.8 0.00 0.00 0.00
-67.4 181.8 12.8 0.00 0.00 0.00
-69.9 181.8 12.8 0.00 0.00 0.00
-72.3 181.8 12.8 0.00 0.00 0.00
-74.8 181.8 12.8 0.00 0.00 0.00
-77.2 181.8 12.8 0.00 0.00 0.00
-62.5 181.8 11.9 0.00 0.00 0.00
-65 181.8 11.9 0.00 0.00 0.00
-67.4 181.8 11.9 0.00 0.00 0.00
-69.9 181.8 11.9 0.00 0.00 0.00
-72.3 181.8 11.9 0.00 0.00 0.00
-74.8 181.8 11.9 0.00 0.00 0.00
-77.2 181.8 11.9 0.00 0.00 0.00
-62.5 181.8 11 0.00 0.00 0.00
-65 181.8 11 0.00 0.00 0.00
-67.4 181.8 11 0.00 0.00 0.00
-69.9 181.8 11 0.00 0.00 0.00
-72.3 181.8 11 0.00 0.00 0.00
-74.8 181.8 11 0.00 0.00 0.00
-77.2 181.8 11 0.00 0.00 0.00
-62.5 181.8 10.1 0.00 0.00 0.00
-65 181.8 10.1 0.00 0.00 0.00
-67.4 181.8 10.1 0.00 0.00 0.00
-69.9 181.8 10.1 0.00 0.00 0.00
-72.3 181.8 10.1 0.00 0.00 0.00
-74.8 181.8 10.1 0.00 0.00 0.00
-77.2 181.8 10.1 0.00 0.00 0.00
-62.5 181.8 9.2 0.00 0.00 0.00
-65 181.8 9.2 0.00 0.00 0.00
-67.4 181.8 9.2 0.00 0.00 0.00
-69.9 181.8 9.2 0.00 0.00 0.00
-72.3 181.8 9.2 0.00 0.00 0.00
-74.8 181.8 9.2 0.00 0.00 0.00
-77.2 181.8 9.2 0.00 0.00 0.00
-62.5 181.8 8.2 0.00 0.00 0.00
-65 181.8 8.2 0.00 0.00 0.00
-67.4 181.8 8.2 0.00 0.00 0.00
-69.9 181.8 8.2 0.00 0.00 0.00
-72.3 181.8 8.2 0.00 0.00 0.00
-74.8 181.8 8.2 0.00 0.00 0.00
-77.2 181.8 8.2 0.00 0.00 0.00
-62.5 181.8 7.3 0.00 0.00 0.00
-65 181.8 7.3 0.00 0.00 0.00
-67.4 181.8 7.3 0.00 0.00 0.00
-69.9 181.8 7.3 0.00 0.00 0.00
-72.3 181.8 7.3 0.00 0.00 0.00
-74.8 181.8 7.3 0.00 0.00 0.00
-77.2 181.8 7.3 0.00 0.00 0.00
-62.5 181.8 6.4 0.00 0.00 0.00
-65 181.8 6.4 0.00 0.00 0.00
-67.4 181.8 6.4 0.00 0.00 0.00
-69.9 181.8 6.4 0.00 0.00 0.00
-72.3 181.8 6.4 0.00 0.00 0.00
-74.8 181.8 6.4 0.00 0.00 0.00
-77.2 181.8 6.4 0.00 0.00 0.00
-62.5 181.8 5.5 0.00 0.00 0.00
-65 181.8 5.5 0.00 0.00 0.00
-67.4 181.8 5.5 0.00 0.00 0.00
-69.9 181.8 5.5 0.00 0.00 0.00
-72.3 181.8 5.5 0.00 0.00 0.00
-74.8 181.8 5.5 0.00 0.00 0.00
-77.2 181.8 5.5 0.00 0.00 0.00
-62.5 181.8 4.6 0.00 0.00 0.00
-65 181.8 4.6 0.00 0.00 0.00
-67.4 181.8 4.6 0.00 0.00 0.00
-69.9 181.8 4.6 0.00 0.00 0.00
-72.3 181.8 4.6 0.00 0.00 0.00
-74.8 181.8 4.6 0.00 0.00 0.00
-77.2 181.8 4.6 0.00 0.00 0.00
-62.5 181.8 3.7 0.00 0.00 0.00
-65 181.8 3.7 0.00 0.00 0.00
-67.4 181.8 3.7 0.00 0.00 0.00
-69.9 181.8 3.7 0.00 0.00 0.00
-72.3 181.8 3.7 0.00 0.00 0.00
-74.8 181.8 3.7 0.00 0.00 0.00
-77.2 181.8 3.7 0.00 0.00 0.00
-62.5 181.8 2.7 0.00 0.00 0.00
-65 181.8 2.7 0.00 0.00 0.00
-67.4 181.8 2.7 0.00 0.00 0.00
-69.9 181.8 2.7 0.00 0.00 0.00
-72.3 181.8 2.7 0.00 0.00 0.00
-74.8 181.8 2.7 0.00 0.00 0.00
-77.2 181.8 2.7 0.00 0.00 0.00
-62.5 181.8 1.8 0.00 0.00 0.00
-65 181.8 1.8 0.00 0.00 0.00
-67.4 181.8 1.8 0.00 0.00 0.00
-69.9 181.8 1.8 0.00 0.00 0.00
-72.3 181.8 1.8 0.00 0.00 0.00
-74.8 181.8 1.8 0.00 0.00 0.00
-77.2 181.8 1.8 0.00 0.00 0.00
-62.5 181.8 0.9 0.00 0.00 0.00
-65 181.8 0.9 0.00 0.00 0.00
-67.4 181.8 0.9 0.00 0.00 0.00
-69.9 181.8 0.9 0.00 0.00 0.00
-72.3 181.8 0.9 0.00 0.00 0.00
-74.8 181.8 0.9 0.00 0.00 0.00
-77.2 181.8 0.9 0.00 0.00 0.00
-62.5 181.8 -0 0.00 0.00 0.00
-65 181.8 -0 0.00 0.00 0.00
-67.4 181.8 -0 0.00 0.00 0.00
-69.9 181.8 -0 0.00 0.00 0.00
-72.3 181.8 -0 0.00 0.00 0.00
-74.8 181.8 -0 0.00 0.00 0.00
-77.2 181.8 -0 0.00 0.00 0.00
-62.5 181.8 -0.9 0.00 0.00 0.00
-65 181.8 -0.9 0.00 0.00 0.00
-67.4 181.8 -0.9 0.00 0.00 0.00
-69.9 181.8 -0.9 0.00 0.00 0.00
-72.3 181.8 -0.9 0.00 0.00 0.00
-74.8 181.8 -0.9 0.00 0.00 0.00
-77.2 181.8 -0.9 0.00 0.00 0.00
-62.5 181.8 -1.8 0.00 0.00 0.00
-65 181.8 -1.8 0.00 0.00 0.00
-67.4 181.8 -1.8 0.00 0.00 0.00
-69.9 181.8 -1.8 0.00 0.00 0.00
-72.3 181.8 -1.8 0.00 0.00 0.00
-74.8 181.8 -1.8 0.00 0.00 0.00
-77.2 181.8 -1.8 0.00 0.00 0.00
-62.5 181.8 -2.8 0.00 0.00 0.00
-65 181.8 -2.8 0.00 0.00 0.00
-67.4 181.8 -2.8 0.00 0.00 0.00
-69.9 181.8 -2.8 0.00 0.00 0.00
-72.3 181.8 -2.8 0.00 0.00 0.00
-74.8 181.8 -2.8 0.00 0.00 0.00
-77.2 181.8 -2.8 0.00 0.00 0.00
-62.5 181.8 -3.7 0.00 0.00 0.00
-65 181.8 -3.7 0.00 0.00 0.00
-67.4 181.8 -3.7 0.00 0.00 0.00
-69.9 181.8 -3.7 0.00 0.00 0.00
-72.3 181.8 -3.7 0.00 0.00 0.00
-74.8 181.8 -3.7 0.00 0.00 0.00
-77.2 181.8 -3.7 0.00 0.00 0.00
-62.5 181.8 -4.6 0.00 0.00 0.00
-65 181.8 -4.6 0.00 0.00 0.00
-67.4 181.8 -4.6 0.00 0.00 0.00
-69.9 181.8 -4.6 0.00 0.00 0.00
-72.3 181.8 -4.6 0.00 0.00 0.00
-74.8 181.8 -4.6 0.00 0.00 0.00
-77.2 181.8 -4.6 0.00 0.00 0.00
-62.5 181.8 -5.5 0.00 0.00 0.00
-65 181.8 -5.5 0.00 0.00 0.00
-67.4 181.8 -5.5 0.00 0.00 0.00
-69.9 181.8 -5.5 0.00 0.00 0.00
-72.3 181.8 -5.5 0.00 0.00 0.00
-74.8 181.8 -5.5 0.00 0.00 0.00
-77.2 181.8 -5.5 0.00 0.00 0.00
-62.5 181.8 -6.4 0.00 0.00 0.00
-65 181.8 -6.4 0.00 0.00 0.00
-67.4 181.8 -6.4 0.00 0.00 0.00
-69.9 181.8 -6.4 0.00 0.00 0.00
-72.3 181.8 -6.4 0.00 0.00 0.00
-74.8 181.8 -6.4 0.00 0.00 0.00
-77.2 181.8 -6.4 0.00 0.00 0.00
-65 182.6 42.3 0.00 0.00 0.00
-67.4 182.6 42.3 0.00 0.00 0.00
-69.9 182.6 42.3 0.00 0.00 0.00
-72.3 182.6 42.3 0.00 0.00 0.00
-74.8 182.6 42.3 0.00 0.00 0.00
-65 182.6 41.3 0.00 0.00 0.00
-67.4 182.6 41.3 0.00 0.00 0.00
-69.9 182.6 41.3 0.00 0.00 0.00
-72.3 182.6 41.3 0.00 0.00 0.00
-74.8 182.6 41.3 0.00 0.00 0.00
-65 182.6 40.4 0.00 0.00 0.00
-67.4 182.6 40.4 0.00 0.00 0.00
-69.9 182.6 40.4 0.00 0.00 0.00
-72.3 182.6 40.4 0.00 0.00 0.00
-74.8 182.6 40.4 0.00 0.00 0.00
-65 182.6 39.5 0.00 0.00 0.00
-67.4 182.6 39.5 0.00 0.00 0.00
-69.9 182.6 39.5 0.00 0.00 0.00
-72.3 182.6 39.5 0.00 0.00 0.00
-74.8 182.6 39.5 0.00 0.00 0.00
-65 182.6 38.6 0.00 0.00 0.00
-67.4 182.6 38.6 0.00 0.00 0.00
-69.9 182.6 38.6 0.00 0.00 0.00
-72.3 182.6 38.6 0.00 0.00 0.00
-74.8 182.6 38.6 0.00 0.00 0.00
-65 182.6 37.6 0.00 0.00 0.00
-67.4 182.6 37.6 0.00 0.00 0.00
-69.9 182.6 37.6 0.00 0.00 0.00
-72.3 182.6 37.6 0.00 0.00 0.00
-74.8 182.6 37.6 0.00 0.00 0.00
-65 182.6 36.7 0.00 0.00 0.00
-67.4 182.6 36.7 0.00 0.00 0.00
-69.9 182.6 36.7 0.00 0.00 0.00
-72.3 182.6 36.7 0.00 0.00 0.00
-74.8 182.6 36.7 0.00 0.00 0.00
-65 182.6 35.8 0.00 0.00 0.00
-67.4 182.6 35.8 0.00 0.00 0.00
-69.9 182.6 35.8 0.00 0.00 0.00
-72.3 182.6 35.8 0.00 0.00 0.00
-74.8 182.6 35.8 0.00 0.00 0.00
-65 182.6 34.9 0.00 0.00 0.00
-67.4 182.6 34.9 0.00 0.00 0.00
-69.9 182.6 34.9 0.00 0.00 0.00
-72.3 182.6 34.9 0.00 0.00 0.00
-74.8 182.6 34.9 0.00 0.00 0.00
-65 182.6 34 0.00 0.00 0.00
-67.4 182.6 34 0.00 0.00 0.00
-69.9 182.6 34 0.00 0.00 0.00
-72.3 182.6 34 0.00 0.00 0.00
-74.8 182.6 34 0.00 0.00 0.00
-65 182.6 33 0.00 0.00 0.00
-67.4 182.6 33 0.00 0.00 0.00
-69.9 182.6 33 0.00 0.00 0.00
-72.3 182.6 33 0.00 0.00 0.00
-74.8 182.6 33 0.00 0.00 0.00
-65 182.6 32.1 0.00 0.00 0.00
-67.4 182.6 32.1 0.00 0.00 0.00
-69.9 182.6 32.1 0.00 0.00 0.00
-72.3 182.6 32.1 0.00 0.00 0.00
-74.8 182.6 32.1 0.00 0.00 0.00
-65 182.6 31.2 0.00 0.00 0.00
-67.4 182.6 31.2 0.00 0.00 0.00
-69.9 182.6 31.2 0.00 0.00 0.00
-72.3 182.6 31.2 0.00 0.00 0.00
-74.8 182.6 31.2 0.00 0.00 0.00
-65 182.6 30.3 0.00 0.00 0.00
-67.4 182.6 30.3 0.00 0.00 0.00
-69.9 182.6 30.3 0.00 0.00 0.00
-72.3 182.6 30.3 0.00 0.00 0.00
-74.8 182.6 30.3 0.00 0.00 0.00
-65 182.6 29.3 0.00 0.00 0.00
-67.4 182.6 29.3 0.00 0.00 0.00
-69.9 182.6 29.3 0.00 0.00 0.00
-72.3 182.6 29.3 0.00 0.00 0.00
-74.8 182.6 29.3 0.00 0.00 0.00
-65 182.6 28.4 0.00 0.00 0.00
-67.4 182.6 28.4 0.00 0.00 0.00
-69.9 182.6 28.4 0.00 0.00 0.00
-72.3 182.6 28.4 0.00 0.00 0.00
-74.8 182.6 28.4 0.00 0.00 0.00
-65 182.6 27.5 0.00 0.00 0.00
-67.4 182.6 27.5 0.00 0.00 0.00
-69.9 182.6 27.5 0.00 0.00 0.00
-72.3 182.6 27.5 0.00 0.00 0.00
-74.8 182.6 27.5 0.00 0.00 0.00
-65 182.6 26.6 0.00 0.00 0.00
-67.4 182.6 26.6 0.00 0.00 0.00
-69.9 182.6 26.6 0.00 0.00 0.00
-72.3 182.6 26.6 0.00 0.00 0.00
-74.8 182.6 26.6 0.00 0.00 0.00
-65 182.6 25.6 0.00 0.00 0.00
-67.4 182.6 25.6 0.00 0.00 0.00
-69.9 182.6 25.6 0.00 0.00 0.00
-72.3 182.6 25.6 0.00 0.00 0.00
-74.8 182.6 25.6 0.00 0.00 0.00
-65 182.6 24.7 0.00 0.00 0.00
-67.4 182.6 24.7 0.00 0.00 0.00
-69.9 182.6 24.7 0.00 0.00 0.00
-72.3 182.6 24.7 0.00 0.00 0.00
-74.8 182.6 24.7 0.00 0.00 0.00
-65 182.6 23.8 0.00 0.00 0.00
-67.4 182.6 23.8 0.00 0.00 0.00
-69.9 182.6 23.8 0.00 0.00 0.00
-72.3 182.6 23.8 0.00 0.00 0.00
-74.8 182.6 23.8 0.00 0.00 0.00
-65 182.6 22.9 0.00 0.00 0.00
-67.4 182.6 22.9 0.00 0.00 0.00
-69.9 182.6 22.9 0.00 0.00 0.00
-72.3 182.6 22.9 0.00 0.00 0.00
-74.8 182.6 22.9 0.00 0.00 0.00
-65 182.6 21.9 0.00 0.00 0.00
-67.4 182.6 21.9 0.00 0.00 0.00
-69.9 182.6 21.9 0.00 0.00 0.00
-72.3 182.6 21.9 0.00 0.00 0.00
-74.8 182.6 21.9 0.00 0.00 0.00
-65 182.6 21 0.00 0.00 0.00
-67.4 182.6 21 0.00 0.00 0.00
-69.9 182.6 21 0.00 0.00 0.00
-72.3 182.6 21 0.00 0.00 0.00
-74.8 182.6 21 0.00 0.00 0.00
-65 182.6 20.1 0.00 0.00 0.00
-67.4 182.6 20.1 0.00 0.00 0.00
-69.9 182.6 20.1 0.00 0.00 0.00
-72.3 182.6 20.1 0.00 0.00 0.00
-74.8 182.6 20.1 0.00 0.00 0.00
-65 182.6 19.2 0.00 0.00 0.00
-67.4 182.6 19.2 0.00 0.00 0.00
-69.9 182.6 19.2 0.00 0.00 0.00
-72.3 182.6 19.2 0.00 0.00 0.00
-74.8 182.6 19.2 0.00 0.00 0.00
-65 182.6 18.2 0.00 0.00 0.00
-67.4 182.6 18.2 0.00 0.00 0.00
-69.9 182.6 18.2 0.00 0.00 0.00
-72.3 182.6 18.2 0.00 0.00 0.00
-74.8 182.6 18.2 0.00 0.00 0.00
-65 182.6 17.3 0.00 0.00 0.00
-67.4 182.6 17.3 0.00 0.00 0.00
-69.9 182.6 17.3 0.00 0.00 0.00
-72.3 182.6 17.3 0.00 0.00 0.00
-74.8 182.6 17.3 0.00 0.00 0.00
-65 182.6 16.4 0.00 0.00 0.00
-67.4 182.6 16.4 0.00 0.00 0.00
-69.9 182.6 16.4 0.00 0.00 0.00
-72.3 182.6 16.4 0.00 0.00 0.00
-74.8 182.6 16.4 0.00 0.00 0.00
-65 182.6 15.5 0.00 0.00 0.00
-67.4 182.6 15.5 0.00 0.00 0.00
-69.9 182.6 15.5 0.00 0.00 0.00
-72.3 182.6 15.5 0.00 0.00 0.00
-74.8 182.6 15.5 0.00 0.00 0.00
-65 182.6 14.6 0.00 0.00 0.00
-67.4 182.6 14.6 0.00 0.00 0.00
-69.9 182.6 14.6 0.00 0.00 0.00
-72.3 182.6 14.6 0.00 0.00 0.00
-74.8 182.6 14.6 0.00 0.00 0.00
-65 182.6 13.6 0.00 0.00 0.00
-67.4 182.6 13.6 0.00 0.00 0.00
-69.9 182.6 13.6 0.00 0.00 0.00
-72.3 182.6 13.6 0.00 0.00 0.00
-74.8 182.6 13.6 0.00 0.00 0.00
-65 182.6 12.7 0.00 0.00 0.00
-67.4 182.6 12.7 0.00 0.00 0.00
-69.9 182.6 12.7 0.00 0.00 0.00
-72.3 182.6 12.7 0.00 0.00 0.00
-74.8 182.6 12.7 0.00 0.00 0.00
-65 182.6 11.8 0.00 0.00 0.00
-67.4 182.6 11.8 0.00 0.00 0.00
-69.9 182.6 11.8 0.00 0.00 0.00
-72.3 182.6 11.8 0.00 0.00 0.00
-74.8 182.6 11.8 0.00 0.00 0.00
-65 182.6 10.9 0.00 0.00 0.00
-67.4 182.6 10.9 0.00 0.00 0.00
-69.9 182.6 10.9 0.00 0.00 0.00
-72.3 182.6 10.9 0.00 0.00 0.00
-74.8 182.6 10.9 0.00 0.00 0.00
-65 182.6 9.9 0.00 0.00 0.00
-67.4 182.6 9.9 0.00 0.00 0.00
-69.9 182.6 9.9 0.00 0.00 0.00
-72.3 182.6 9.9 0.00 0.00 0.00
-74.8 182.6 9.9 0.00 0.00 0.00
-65 182.6 9 0.00 0.00 0.00
-67.4 182.6 9 0.00 0.00 0.00
-69.9 182.6 9 0.00 0.00 0.00
-72.3 182.6 9 0.00 0.00 0.00
-74.8 182.6 9 0.00 0.00 0.00
-65 182.6 8.1 0.00 0.00 0.00
-67.4 182.6 8.1 0.00 0.00 0.00
-69.9 182.6 8.1 0.00 0.00 0.00
-72.3 182.6 8.1 0.00 0.00 0.00
-74.8 182.6 8.1 0.00 0.00 0.00
-65 182.6 7.2 0.00 0.00 0.00
-67.4 182.6 7.2 0.00 0.00 0.00
-69.9 182.6 7.2 0.00 0.00 0.00
-72.3 182.6 7.2 0.00 0.00 0.00
-74.8 182.6 7.2 0.00 0.00 0.00
-65 182.6 6.2 0.00 0.00 0.00
-67.4 182.6 6.2 0.00 0.00 0.00
-69.9 182.6 6.2 0.00 0.00 0.00
-72.3 182.6 6.2 0.00 0.00 0.00
-74.8 182.6 6.2 0.00 0.00 0.00
-65 182.6 5.3 0.00 0.00 0.00
-67.4 182.6 5.3 0.00 0.00 0.00
-69.9 182.6 5.3 0.00 0.00 0.00
-72.3 182.6 5.3 0.00 0.00 0.00
-74.8 182.6 5.3 0.00 0.00 0.00
-65 182.6 4.4 0.00 0.00 0.00
-67.4 182.6 4.4 0.00 0.00 0.00
-69.9 182.6 4.4 0.00 0.00 0.00
-72.3 182.6 4.4 0.00 0.00 0.00
-74.8 182.6 4.4 0.00 0.00 0.00
-65 182.6 3.5 0.00 0.00 0.00
-67.4 182.6 3.5 0.00 0.00 0.00
-69.9 182.6 3.5 0.00 0.00 0.00
-72.3 182.6 3.5 0.00 0.00 0.00
-74.8 182.6 3.5 0.00 0.00 0.00
-65 182.6 2.5 0.00 0.00 0.00
-67.4 182.6 2.5 0.00 0.00 0.00
-69.9 182.6 2.5 0.00 0.00 0.00
-72.3 182.6 2.5 0.00 0.00 0.00
-74.8 182.6 2.5 0.00 0.00 0.00
-65 182.6 1.6 0.00 0.00 0.00
-67.4 182.6 1.6 0.00 0.00 0.00
-69.9 182.6 1.6 0.00 0.00 0.00
-72.3 182.6 1.6 0.00 0.00 0.00
-74.8 182.6 1.6 0.00 0.00 0.00
-65 182.6 0.7 0.00 0.00 0.00
-67.4 182.6 0.7 0.00 0.00 0.00
-69.9 182.6 0.7 0.00 0.00 0.00
-72.3 182.6 0.7 0.00 0.00 0.00
-74.8 182.6 0.7 0.00 0.00 0.00
-65 182.6 -0.2 0.00 0.00 0.00
-67.4 182.6 -0.2 0.00 0.00 0.00
-69.9 182.6 -0.2 0.00 0.00 0.00
-72.3 182.6 -0.2 0.00 0.00 0.00
-74.8 182.6 -0.2 0.00 0.00 0.00
-65 182.6 -1.2 0.00 0.00 0.00
-67.4 182.6 -1.2 0.00 0.00 0.00
-69.9 182.6 -1.2 0.00 0.00 0.00
-72.3 182.6 -1.2 0.00 0.00 0.00
-74.8 182.6 -1.2 0.00 0.00 0.00
-65 182.6 -2.1 0.00 0.00 0.00
-67.4 182.6 -2.1 0.00 0.00 0.00
-69.9 182.6 -2.1 0.00 0.00 0.00
-72.3 182.6 -2.1 0.00 0.00 0.00
-74.8 182.6 -2.1 0.00 0.00 0.00
-65 182.6 -3 0.00 0.00 0.00
-67.4 182.6 -3 0.00 0.00 0.00
-69.9 182.6 -3 0.00 0.00 0.00
-72.3 182.6 -3 0.00 0.00 0.00
-74.8 182.6 -3 0.00 0.00 0.00
-65 182.6 -3.9 0.00 0.00 0.00
-67.4 182.6 -3.9 0.00 0.00 0.00
-69.9 182.6 -3.9 0.00 0.00 0.00
-72.3 182.6 -3.9 0.00 0.00 0.00
-74.8 182.6 -3.9 0.00 0.00 0.00
-65 182.6 -4.9 0.00 0.00 0.00
-67.4 182.6 -4.9 0.00 0.00 0.00
-69.9 182.6 -4.9 0.00 0.00 0.00
-72.3 182.6 -4.9 0.00 0.00 0.00
-74.8 182.6 -4.9 0.00 0.00 0.00
-65 182.6 -5.8 0.00 0.00 0.00
-67.4 182.6 -5.8 0.00 0.00 0.00
-69.9 182.6 -5.8 0.00 0.00 0.00
-72.3 182.6 -5.8 0.00 0.00 0.00
-74.8 182.6 -5.8 0.00 0.00 0.00
-65 182.6 -6.7 0.00 0.00 0.00
-67.4 182.6 -6.7 0.00 0.00 0.00
-69.9 182.6 -6.7 0.00 0.00 0.00
-72.3 182.6 -6.7 0.00 0.00 0.00
-74.8 182.6 -6.7 0.00 0.00 0.00
-65 183.4 41.4 0.00 0.00 0.00
-67.4 183.4 41.4 0.00 0.00 0.00
-69.9 183.4 41.4 0.00 0.00 0.00
-72.3 183.4 41.4 0.00 0.00 0.00
-74.8 183.4 41.4 0.00 0.00 0.00
-65 183.4 40.5 0.00 0.00 0.00
-67.4 183.4 40.5 0.00 0.00 0.00
-69.9 183.4 40.5 0.00 0.00 0.00
-72.3 183.4 40.5 0.00 0.00 0.00
-74.8 183.4 40.5 0.00 0.00 0.00
-65 183.4 39.6 0.00 0.00 0.00
-67.4 183.4 39.6 0.00 0.00 0.00
-69.9 183.4 39.6 0.00 0.00 0.00
-72.3 183.4 39.6 0.00 0.00 0.00
-74.8 183.4 39.6 0.00 0.00 0.00
-65 183.4 38.7 0.00 0.00 0.00
-67.4 183.4 38.7 0.00 0.00 0.00
-69.9 183.4 38.7 0.00 0.00 0.00
-72.3 183.4 38.7 0.00 0.00 0.00
-74.8 183.4 38.7 0.00 0.00 0.00
-65 183.4 37.7 0.00 0.00 0.00
-67.4 183.4 37.7 0.00 0.00 0.00
-69.9 183.4 37.7 0.00 0.00 0.00
-72.3 183.4 37.7 0.00 0.00 0.00
-74.8 183.4 37.7 0.00 0.00 0.00
-65 183.4 36.8 0.00 0.00 0.00
-67.4 183.4 36.8 0.00 0.00 0.00
-69.9 183.4 36.8 0.00 0.00 0.00
-72.3 183.4 36.8 0.00 0.00 0.00
-74.8 183.4 36.8 0.00 0.00 0.00
-65 183.4 35.9 0.00 0.00 0.00
-67.4 183.4 35.9 0.00 0.00 0.00
-69.9 183.4 35.9 0.00 0.00 0.00
-72.3 183.4 35.9 0.00 0.00 0.00
-74.8 183.4 35.9 0.00 0.00 0.00
-65 183.4 34.9 0.00 0.00 0.00
-67.4 183.4 34.9 0.00 0.00 0.00
-69.9 183.4 34.9 0.00 0.00 0.00
-72.3 183.4 34.9 0.00 0.00 0.00
-74.8 183.4 34.9 0.00 0.00 0.00
-65 183.4 34 0.00 0.00 0.00
-67.4 183.4 34 0.00 0.00 0.00
-69.9 183.4 34 0.00 0.00 0.00
-72.3 183.4 34 0.00 0.00 0.00
-74.8 183.4 34 0.00 0.00 0.00
-65 183.4 33.1 0.00 0.00 0.00
-67.4 183.4 33.1 0.00 0.00 0.00
-69.9 183.4 33.1 0.00 0.00 0.00
-72.3 183.4 33.1 0.00 0.00 0.00
-74.8 183.4 33.1 0.00 0.00 0.00
-65 183.4 32.1 0.00 0.00 0.00
-67.4 183.4 32.1 0.00 0.00 0.00
-69.9 183.4 32.1 0.00 0.00 0.00
-72.3 183.4 32.1 0.00 0.00 0.00
-74.8 183.4 32.1 0.00 0.00 0.00
-65 183.4 31.2 0.00 0.00 0.00
-67.4 183.4 31.2 0.00 0.00 0.00
-69.9 183.4 31.2 0.00 0.00 0.00
-72.3 183.4 31.2 0.00 0.00 0.00
-74.8 183.4 31.2 0.00 0.00 0.00
-65 183.4 30.3 0.00 0.00 0.00
-67.4 183.4 30.3 0.00 0.00 0.00
-69.9 183.4 30.3 0.00 0.00 0.00
-72.3 183.4 30.3 0.00 0.00 0.00
-74.8 183.4 30.3 0.00 0.00 0.00
-65 183.4 29.3 0.00 0.00 0.00
-67.4 183.4 29.3 0.00 0.00 0.00
-69.9 183.4 29.3 0.00 0.00 0.00
-72.3 183.4 29.3 0.00 0.00 0.00
-74.8 183.4 29.3 0.00 0.00 0.00
-65 183.4 28.4 0.00 0.00 0.00
-67.4 183.4 28.4 0.00 0.00 0.00
-69.9 183.4 28.4 0.00 0.00 0.00
-72.3 183.4 28.4 0.00 0.00 0.00
-74.8 183.4 28.4 0.00 0.00 0.00
-65 183.4 27.5 0.00 0.00 0.00
-67.4 183.4 27.5 0.00 0.00 0.00
-69.9 183.4 27.5 0.00 0.00 0.00
-72.3 183.4 27.5 0.00 0.00 0.00
-74.8 183.4 27.5 0.00 0.00 0.00
-65 183.4 26.5 0.00 0.00 0.00
-67.4 183.4 26.5 0.00 0.00 0.00
-69.9 183.4 26.5 0.00 0.00 0.00
-72.3 183.4 26.5 0.00 0.00 0.00
-74.8 183.4 26.5 0.00 0.00 0.00
-65 183.4 25.6 0.00 0.00 0.00
-67.4 183.4 25.6 0.00 0.00 0.00
-69.9 183.4 25.6 0.00 0.00 0.00
-72.3 183.4 25.6 0.00 0.00 0.00
-74.8 183.4 25.6 0.00 0.00 0.00
-65 183.4 24.7 0.00 0.00 0.00
-67.4 183.4 24.7 0.00 0.00 0.00
-69.9 183.4 24.7 0.00 0.00 0.00
-72.3 183.4 24.7 0.00 0.00 0.00
-74.8 183.4 24.7 0.00 0.00 0.00
-65 183.4 23.8 0.00 0.00 0.00
-67.4 183.4 23.8 0.00 0.00 0.00
-69.9 183.4 23.8 0.00 0.00 0.00
-72.3 183.4 23.8 0.00 0.00 0.00
-74.8 183.4 23.8 0.00 0.00 0.00
-65 183.4 22.8 0.00 0.00 0.00
-67.4 183.4 22.8 0.00 0.00 0.00
-69.9 183.4 22.8 0.00 0.00 0.00
-72.3 183.4 22.8 0.00 0.00 0.00
-74.8 183.4 22.8 0.00 0.00 0.00
-65 183.4 21.9 0.00 0.00 0.00
-67.4 183.4 21.9 0.00 0.00 0.00
-69.9 183.4 21.9 0.00 0.00 0.00
-72.3 183.4 21.9 0.00 0.00 0.00
-74.8 183.4 21.9 0.00 0.00 0.00
-65 183.4 21 0.00 0.00 0.00
-67.4 183.4 21 0.00 0.00 0.00
-69.9 183.4 21 0.00 0.00 0.00
-72.3 183.4 21 0.00 0.00 0.00
-74.8 183.4 21 0.00 0.00 0.00
-65 183.4 20 0.00 0.00 0.00
-67.4 183.4 20 0.00 0.00 0.00
-69.9 183.4 20 0.00 0.00 0.00
-72.3 183.4 20 0.00 0.00 0.00
-74.8 183.4 20 0.00 0.00 0.00
-65 183.4 19.1 0.00 0.00 0.00
-67.4 183.4 19.1 0.00 0.00 0.00
-69.9 183.4 19.1 0.00 0.00 0.00
-72.3 183.4 19.1 0.00 0.00 0.00
-74.8 183.4 19.1 0.00 0.00 0.00
-65 183.4 18.2 0.00 0.00 0.00
-67.4 183.4 18.2 0.00 0.00 0.00
-69.9 183.4 18.2 0.00 0.00 0.00
-72.3 183.4 18.2 0.00 0.00 0.00
-74.8 183.4 18.2 0.00 0.00 0.00
-65 183.4 17.2 0.00 0.00 0.00
-67.4 183.4 17.2 0.00 0.00 0.00
-69.9 183.4 17.2 0.00 0.00 0.00
-72.3 183.4 17.2 0.00 0.00 0.00
-74.8 183.4 17.2 0.00 0.00 0.00
-65 183.4 16.3 0.00 0.00 0.00
-67.4 183.4 16.3 0.00 0.00 0.00
-69.9 183.4 16.3 0.00 0.00 0.00
-72.3 183.4 16.3 0.00 0.00 0.00
-74.8 183.4 16.3 0.00 0.00 0.00
-65 183.4 15.4 0.00 0.00 0.00
-67.4 183.4 15.4 0.00 0.00 0.00
-69.9 183.4 15.4 0.00 0.00 0.00
-72.3 183.4 15.4 0.00 0.00 0.00
-74.8 183.4 15.4 0.00 0.00 0.00
-65 183.4 14.4 0.00 0.00 0.00
-67.4 183.4 14.4 0.00 0.00 0.00
-69.9 183.4 14.4 0.00 0.00 0.00
-72.3 183.4 14.4 0.00 0.00 0.00
-74.8 183.4 14.4 0.00 0.00 0.00
-65 183.4 13.5 0.00 0.00 0.00
-67.4 183.4 13.5 0.00 0.00 0.00
-69.9 183.4 13.5 0.00 0.00 0.00
-72.3 183.4 13.5 0.00 0.00 0.00
-74.8 183.4 13.5 0.00 0.00 0.00
-65 183.4 12.6 0.00 0.00 0.00
-67.4 183.4 12.6 0.00 0.00 0.00
-69.9 183.4 12.6 0.00 0.00 0.00
-72.3 183.4 12.6 0.00 0.00 0.00
-74.8 183.4 12.6 0.00 0.00 0.00
-65 183.4 11.7 0.00 0.00 0.00
-67.4 183.4 11.7 0.00 0.00 0.00
-69.9 183.4 11.7 0.00 0.00 0.00
-72.3 183.4 11.7 0.00 0.00 0.00
-74.8 183.4 11.7 0.00 0.00 0.00
-65 183.4 10.7 0.00 0.00 0.00
-67.4 183.4 10.7 0.00 0.00 0.00
-69.9 183.4 10.7 0.00 0.00 0.00
-72.3 183.4 10.7 0.00 0.00 0.00
-74.8 183.4 10.7 0.00 0.00 0.00
-65 183.4 9.8 0.00 0.00 0.00
-67.4 183.4 9.8 0.00 0.00 0.00
-69.9 183.4 9.8 0.00 0.00 0.00
-72.3 183.4 9.8 0.00 0.00 0.00
-74.8 183.4 9.8 0.00 0.00 0.00
-65 183.4 8.9 0.00 0.00 0.00
-67.4 183.4 8.9 0.00 0.00 0.00
-69.9 183.4 8.9 0.00 0.00 0.00
-72.3 183.4 8.9 0.00 0.00 0.00
-74.8 183.4 8.9 0.00 0.00 0.00
-65 183.4 7.9 0.00 0.00 0.00
-67.4 183.4 7.9 0.00 0.00 0.00
-69.9 183.4 7.9 0.00 0.00 0.00
-72.3 183.4 7.9 0.00 0.00 0.00
-74.8 183.4 7.9 0.00 0.00 0.00
-65 183.4 7 0.00 0.00 0.00
-67.4 183.4 7 0.00 0.00 0.00
-69.9 183.4 7 0.00 0.00 0.00
-72.3 183.4 7 0.00 0.00 0.00
-74.8 183.4 7 0.00 0.00 0.00
-65 183.4 6.1 0.00 0.00 0.00
-67.4 183.4 6.1 0.00 0.00 0.00
-69.9 183.4 6.1 0.00 0.00 0.00
-72.3 183.4 6.1 0.00 0.00 0.00
-74.8 183.4 6.1 0.00 0.00 0.00
-65 183.4 5.1 0.00 0.00 0.00
-67.4 183.4 5.1 0.00 0.00 0.00
-69.9 183.4 5.1 0.00 0.00 0.00
-72.3 183.4 5.1 0.00 0.00 0.00
-74.8 183.4 5.1 0.00 0.00 0.00
-65 183.4 4.2 0.00 0.00 0.00
-67.4 183.4 4.2 0.00 0.00 0.00
-69.9 183.4 4.2 0.00 0.00 0.00
-72.3 183.4 4.2 0.00 0.00 0.00
-74.8 183.4 4.2 0.00 0.00 0.00
-65 183.4 3.3 0.00 0.00 0.00
-67.4 183.4 3.3 0.00 0.00 0.00
-69.9 183.4 3.3 0.00 0.00 0.00
-72.3 183.4 3.3 0.00 0.00 0.00
-74.8 183.4 3.3 0.00 0.00 0.00
-65 183.4 2.3 0.00 0.00 0.00
-67.4 183.4 2.3 0.00 0.00 0.00
-69.9 183.4 2.3 0.00 0.00 0.00
-72.3 183.4 2.3 0.00 0.00 0.00
-74.8 183.4 2.3 0.00 0.00 0.00
-65 183.4 1.4 0.00 0.00 0.00
-67.4 183.4 1.4 0.00 0.00 0.00
-69.9 183.4 1.4 0.00 0.00 0.00
-72.3 183.4 1.4 0.00 0.00 0.00
-74.8 183.4 1.4 0.00 0.00 0.00
-65 183.4 0.5 0.00 0.00 0.00
-67.4 183.4 0.5 0.00 0.00 0.00
-69.9 183.4 0.5 0.00 0.00 0.00
-72.3 183.4 0.5 0.00 0.00 0.00
-74.8 183.4 0.5 0.00 0.00 0.00
-65 183.4 -0.5 0.00 0.00 0.00
-67.4 183.4 -0.5 0.00 0.00 0.00
-69.9 183.4 -0.5 0.00 0.00 0.00
-72.3 183.4 -0.5 0.00 0.00 0.00
-74.8 183.4 -0.5 0.00 0.00 0.00
-65 183.4 -1.4 0.00 0.00 0.00
-67.4 183.4 -1.4 0.00 0.00 0.00
-69.9 183.4 -1.4 0.00 0.00 0.00
-72.3 183.4 -1.4 0.00 0.00 0.00
-74.8 183.4 -1.4 0.00 0.00 0.00
-65 183.4 -2.3 0.00 0.00 0.00
-67.4 183.4 -2.3 0.00 0.00 0.00
-69.9 183.4 -2.3 0.00 0.00 0.00
-72.3 183.4 -2.3 0.00 0.00 0.00
-74.8 183.4 -2.3 0.00 0.00 0.00
-65 183.4 -3.2 0.00 0.00 0.00
-67.4 183.4 -3.2 0.00 0.00 0.00
-69.9 183.4 -3.2 0.00 0.00 0.00
-72.3 183.4 -3.2 0.00 0.00 0.00
-74.8 183.4 -3.2 0.00 0.00 0.00
-65 183.4 -4.2 0.00 0.00 0.00
-67.4 183.4 -4.2 0.00 0.00 0.00
-69.9 183.4 -4.2 0.00 0.00 0.00
-72.3 183.4 -4.2 0.00 0.00 0.00
-74.8 183.4 -4.2 0.00 0.00 0.00
-65 183.4 -5.1 0.00 0.00 0.00
-67.4 183.4 -5.1 0.00 0.00 0.00
-69.9 183.4 -5.1 0.00 0.00 0.00
-72.3 183.4 -5.1 0.00 0.00 0.00
-74.8 183.4 -5.1 0.00 0.00 0.00
-65 183.4 -6 0.00 0.00 0.00
-67.4 183.4 -6 0.00 0.00 0.00
-69.9 183.4 -6 0.00 0.00 0.00
-72.3 183.4 -6 0.00 0.00 0.00
-74.8 183.4 -6 0.00 0.00 0.00
-65 183.4 -7 0.00 0.00 0.00
-67.4 183.4 -7 0.00 0.00 0.00
-69.9 183.4 -7 0.00 0.00 0.00
-72.3 183.4 -7 0.00 0.00 0.00
-74.8 183.4 -7 0.00 0.00 0.00
-65 184.2 41.5 0.00 0.00 0.00
-67.4 184.2 41.5 0.00 0.00 0.00
-69.9 184.2 41.5 0.00 0.00 0.00
-72.3 184.2 41.5 0.00 0.00 0.00
-74.8 184.2 41.5 0.00 0.00 0.00
-65 184.2 40.6 0.00 0.00 0.00
-67.4 184.2 40.6 0.00 0.00 0.00
-69.9 184.2 40.6 0.00 0.00 0.00
-72.3 184.2 40.6 0.00 0.00 0.00
-74.8 184.2 40.6 0.00 0.00 0.00
-65 184.2 39.7 0.00 0.00 0.00
-67.4 184.2 39.7 0.00 0.00 0.00
-69.9 184.2 39.7 0.00 0.00 0.00
-72.3 184.2 39.7 0.00 0.00 0.00
-74.8 184.2 39.7 0.00 0.00 0.00
-65 184.2 38.7 0.00 0.00 0.00
-67.4 184.2 38.7 0.00 0.00 0.00
-69.9 184.2 38.7 0.00 0.00 0.00
-72.3 184.2 38.7 0.00 0.00 0.00
-74.8 184.2 38.7 0.00 0.00 0.00
-65 184.2 37.8 0.00 0.00 0.00
-67.4 184.2 37.8 0.00 0.00 0.00
-69.9 184.2 37.8 0.00 0.00 0.00
-72.3 184.2 37.8 0.00 0.00 0.00
-74.8 184.2 37.8 0.00 0.00 0.00
-65 184.2 36.9 0.00 0.00 0.00
-67.4 184.2 36.9 0.00 0.00 0.00
-69.9 184.2 36.9 0.00 0.00 0.00
-72.3 184.2 36.9 0.00 0.00 0.00
-74.8 184.2 36.9 0.00 0.00 0.00
-65 184.2 35.9 0.00 0.00 0.00
-67.4 184.2 35.9 0.00 0.00 0.00
-69.9 184.2 35.9 0.00 0.00 0.00
-72.3 184.2 35.9 0.00 0.00 0.00
-74.8 184.2 35.9 0.00 0.00 0.00
-65 184.2 35 0.00 0.00 0.00
-67.4 184.2 35 0.00 0.00 0.00
-69.9 184.2 35 0.00 0.00 0.00
-72.3 184.2 35 0.00 0.00 0.00
-74.8 184.2 35 0.00 0.00 0.00
-65 184.2 34 0.00 0.00 0.00
-67.4 184.2 34 0.00 0.00 0.00
-69.9 184.2 34 0.00 0.00 0.00
-72.3 184.2 34 0.00 0.00 0.00
-74.8 184.2 34 0.00 0.00 0.00
-65 184.2 33.1 0.00 0.00 0.00
-67.4 184.2 33.1 0.00 0.00 0.00
-69.9 184.2 33.1 0.00 0.00 0.00
-72.3 184.2 33.1 0.00 0.00 0.00
-74.8 184.2 33.1 0.00 0.00 0.00
-65 184.2 32.2 0.00 0.00 0.00
-67.4 184.2 32.2 0.00 0.00 0.00
-69.9 184.2 32.2 0.00 0.00 0.00
-72.3 184.2 32.2 0.00 0.00 0.00
-74.8 184.2 32.2 0.00 0.00 0.00
-65 184.2 31.2 0.00 0.00 0.00
-67.4 184.2 31.2 0.00 0.00 0.00
-69.9 184.2 31.2 0.00 0.00 0.00
-72.3 184.2 31.2 0.00 0.00 0.00
-74.8 184.2 31.2 0.00 0.00 0.00
-65 184.2 30.3 0.00 0.00 0.00
-67.4 184.2 30.3 0.00 0.00 0.00
-69.9 184.2 30.3 0.00 0.00 0.00
-72.3 184.2 30.3 0.00 0.00 0.00
-74.8 184.2 30.3 0.00 0.00 0.00
-65 184.2 29.3 0.00 0.00 0.00
-67.4 184.2 29.3 0.00 0.00 0.00
-69.9 184.2 29.3 0.00 0.00 0.00
-72.3 184.2 29.3 0.00 0.00 0.00
-74.8 184.2 29.3 0.00 0.00 0.00
-65 184.2 28.4 0.00 0.00 0.00
-67.4 184.2 28.4 0.00 0.00 0.00
-69.9 184.2 28.4 0.00 0.00 0.00
-72.3 184.2 28.4 0.00 0.00 0.00
-74.8 184.2 28.4 0.00 0.00 0.00
-65 184.2 27.5 0.00 0.00 0.00
-67.4 184.2 27.5 0.00 0.00 0.00
-69.9 184.2 27.5 0.00 0.00 0.00
-72.3 184.2 27.5 0.00 0.00 0.00
-74.8 184.2 27.5 0.00 0.00 0.00
-65 184.2 26.5 0.00 0.00 0.00
-67.4 184.2 26.5 0.00 0.00 0.00
-69.9 184.2 26.5 0.00 0.00 0.00
-72.3 184.2 26.5 0.00 0.00 0.00
-74.8 184.2 26.5 0.00 0.00 0.00
-65 184.2 25.6 0.00 0.00 0.00
-67.4 184.2 25.6 0.00 0.00 0.00
-69.9 184.2 25.6 0.00 0.00 0.00
-72.3 184.2 25.6 0.00 0.00 0.00
-74.8 184.2 25.6 0.00 0.00 0.00
-65 184.2 24.7 0.00 0.00 0.00
-67.4 184.2 24.7 0.00 0.00 0.00
-69.9 184.2 24.7 0.00 0.00 0.00
-72.3 184.2 24.7 0.00 0.00 0.00
-74.8 184.2 24.7 0.00 0.00 0.00
-65 184.2 23.7 0.00 0.00 0.00
-67.4 184.2 23.7 0.00 0.00 0.00
-69.9 184.2 23.7 0.00 0.00 0.00
-72.3 184.2 23.7 0.00 0.00 0.00
-74.8 184.2 23.7 0.00 0.00 0.00
-65 184.2 22.8 0.00 0.00 0.00
-67.4 184.2 22.8 0.00 0.00 0.00
-69.9 184.2 22.8 0.00 0.00 0.00
-72.3 184.2 22.8 0.00 0.00 0.00
-74.8 184.2 22.8 0.00 0.00 0.00
-65 184.2 21.8 0.00 0.00 0.00
-67.4 184.2 21.8 0.00 0.00 0.00
-69.9 184.2 21.8 0.00 0.00 0.00
-72.3 184.2 21.8 0.00 0.00 0.00
-74.8 184.2 21.8 0.00 0.00 0.00
-65 184.2 20.9 0.00 0.00 0.00
-67.4 184.2 20.9 0.00 0.00 0.00
-69.9 184.2 20.9 0.00 0.00 0.00
-72.3 184.2 20.9 0.00 0.00 0.00
-74.8 184.2 20.9 0.00 0.00 0.00
-65 184.2 20 0.00 0.00 0.00
-67.4 184.2 20 0.00 0.00 0.00
-69.9 184.2 20 0.00 0.00 0.00
-72.3 184.2 20 0.00 0.00 0.00
-74.8 184.2 20 0.00 0.00 0.00
-65 184.2 19 0.00 0.00 0.00
-67.4 184.2 19 0.00 0.00 0.00
-69.9 184.2 19 0.00 0.00 0.00
-72.3 184.2 19 0.00 0.00 0.00
-74.8 184.2 19 0.00 0.00 0.00
-65 184.2 18.1 0.00 0.00 0.00
-67.4 184.2 18.1 0.00 0.00 0.00
-69.9 184.2 18.1 0.00 0.00 0.00
-72.3 184.2 18.1 0.00 0.00 0.00
-74.8 184.2 18.1 0.00 0.00 0.00
-65 184.2 17.2 0.00 0.00 0.00
-67.4 184.2 17.2 0.00 0.00 0.00
-69.9 184.2 17.2 0.00 0.00 0.00
-72.3 184.2 17.2 0.00 0.00 0.00
-74.8 184.2 17.2 0.00 0.00 0.00
-65 184.2 16.2 0.00 0.00 0.00
-67.4 184.2 16.2 0.00 0.00 0.00
-69.9 184.2 16.2 0.00 0.00 0.00
-72.3 184.2 16.2 0.00 0.00 0.00
-74.8 184.2 16.2 0.00 0.00 0.00
-65 184.2 15.3 0.00 0.00 0.00
-67.4 184.2 15.3 0.00 0.00 0.00
-69.9 184.2 15.3 0.00 0.00 0.00
-72.3 184.2 15.3 0.00 0.00 0.00
-74.8 184.2 15.3 0.00 0.00 0.00
-65 184.2 14.3 0.00 0.00 0.00
-67.4 184.2 14.3 0.00 0.00 0.00
-69.9 184.2 14.3 0.00 0.00 0.00
-72.3 184.2 14.3 0.00 0.00 0.00
-74.8 184.2 14.3 0.00 0.00 0.00
-65 184.2 13.4 0.00 0.00 0.00
-67.4 184.2 13.4 0.00 0.00 0.00
-69.9 184.2 13.4 0.00 0.00 0.00
-72.3 184.2 13.4 0.00 0.00 0.00
-74.8 184.2 13.4 0.00 0.00 0.00
-65 184.2 12.5 0.00 0.00 0.00
-67.4 184.2 12.5 0.00 0.00 0.00
-69.9 184.2 12.5 0.00 0.00 0.00
-72.3 184.2 12.5 0.00 0.00 0.00
-74.8 184.2 12.5 0.00 0.00 0.00
-65 184.2 11.5 0.00 0.00 0.00
-67.4 184.2 11.5 0.00 0.00 0.00
-69.9 184.2 11.5 0.00 0.00 0.00
-72.3 184.2 11.5 0.00 0.00 0.00
-74.8 184.2 11.5 0.00 0.00 0.00
-65 184.2 10.6 0.00 0.00 0.00
-67.4 184.2 10.6 0.00 0.00 0.00
-69.9 184.2 10.6 0.00 0.00 0.00
-72.3 184.2 10.6 0.00 0.00 0.00
-74.8 184.2 10.6 0.00 0.00 0.00
-65 184.2 9.6 0.00 0.00 0.00
-67.4 184.2 9.6 0.00 0.00 0.00
-69.9 184.2 9.6 0.00 0.00 0.00
-72.3 184.2 9.6 0.00 0.00 0.00
-74.8 184.2 9.6 0.00 0.00 0.00
-65 184.2 8.7 0.00 0.00 0.00
-67.4 184.2 8.7 0.00 0.00 0.00
-69.9 184.2 8.7 0.00 0.00 0.00
-72.3 184.2 8.7 0.00 0.00 0.00
-74.8 184.2 8.7 0.00 0.00 0.00
-65 184.2 7.8 0.00 0.00 0.00
-67.4 184.2 7.8 0.00 0.00 0.00
-69.9 184.2 7.8 0.00 0.00 0.00
-72.3 184.2 7.8 0.00 0.00 0.00
-74.8 184.2 7.8 0.00 0.00 0.00
-65 184.2 6.8 0.00 0.00 0.00
-67.4 184.2 6.8 0.00 0.00 0.00
-69.9 184.2 6.8 0.00 0.00 0.00
-72.3 184.2 6.8 0.00 0.00 0.00
-74.8 184.2 6.8 0.00 0.00 0.00
-65 184.2 5.9 0.00 0.00 0.00
-67.4 184.2 5.9 0.00 0.00 0.00
-69.9 184.2 5.9 0.00 0.00 0.00
-72.3 184.2 5.9 0.00 0.00 0.00
-74.8 184.2 5.9 0.00 0.00 0.00
-65 184.2 5 0.00 0.00 0.00
-67.4 184.2 5 0.00 0.00 0.00
-69.9 184.2 5 0.00 0.00 0.00
-72.3 184.2 5 0.00 0.00 0.00
-74.8 184.2 5 0.00 0.00 0.00
-65 184.2 4 0.00 0.00 0.00
-67.4 184.2 4 0.00 0.00 0.00
-69.9 184.2 4 0.00 0.00 0.00
-72.3 184.2 4 0.00 0.00 0.00
-74.8 184.2 4 0.00 0.00 0.00
-65 184.2 3.1 0.00 0.00 0.00
-67.4 184.2 3.1 0.00 0.00 0.00
-69.9 184.2 3.1 0.00 0.00 0.00
-72.3 184.2 3.1 0.00 0.00 0.00
-74.8 184.2 3.1 0.00 0.00 0.00
-65 184.2 2.1 0.00 0.00 0.00
-67.4 184.2 2.1 0.00 0.00 0.00
-69.9 184.2 2.1 0.00 0.00 0.00
-72.3 184.2 2.1 0.00 0.00 0.00
-74.8 184.2 2.1 0.00 0.00 0.00
-65 184.2 1.2 0.00 0.00 0.00
-67.4 184.2 1.2 0.00 0.00 0.00
-69.9 184.2 1.2 0.00 0.00 0.00
-72.3 184.2 1.2 0.00 0.00 0.00
-74.8 184.2 1.2 0.00 0.00 0.00
-65 184.2 0.3 0.00 0.00 0.00
-67.4 184.2 0.3 0.00 0.00 0.00
-69.9 184.2 0.3 0.00 0.00 0.00
-72.3 184.2 0.3 0.00 0.00 0.00
-74.8 184.2 0.3 0.00 0.00 0.00
-65 184.2 -0.7 0.00 0.00 0.00
-67.4 184.2 -0.7 0.00 0.00 0.00
-69.9 184.2 -0.7 0.00 0.00 0.00
-72.3 184.2 -0.7 0.00 0.00 0.00
-74.8 184.2 -0.7 0.00 0.00 0.00
-65 184.2 -1.6 0.00 0.00 0.00
-67.4 184.2 -1.6 0.00 0.00 0.00
-69.9 184.2 -1.6 0.00 0.00 0.00
-72.3 184.2 -1.6 0.00 0.00 0.00
-74.8 184.2 -1.6 0.00 0.00 0.00
-65 184.2 -2.5 0.00 0.00 0.00
-67.4 184.2 -2.5 0.00 0.00 0.00
-69.9 184.2 -2.5 0.00 0.00 0.00
-72.3 184.2 -2.5 0.00 0.00 0.00
-74.8 184.2 -2.5 0.00 0.00 0.00
-65 184.2 -3.5 0.00 0.00 0.00
-67.4 184.2 -3.5 0.00 0.00 0.00
-69.9 184.2 -3.5 0.00 0.00 0.00
-72.3 184.2 -3.5 0.00 0.00 0.00
-74.8 184.2 -3.5 0.00 0.00 0.00
-65 184.2 -4.4 0.00 0.00 0.00
-67.4 184.2 -4.4 0.00 0.00 0.00
-69.9 184.2 -4.4 0.00 0.00 0.00
-72.3 184.2 -4.4 0.00 0.00 0.00
-74.8 184.2 -4.4 0.00 0.00 0.00
-65 184.2 -5.4 0.00 0.00 0.00
-67.4 184.2 -5.4 0.00 0.00 0.00
-69.9 184.2 -5.4 0.00 0.00 0.00
-72.3 184.2 -5.4 0.00 0.00 0.00
-74.8 184.2 -5.4 0.00 0.00 0.00
-65 184.2 -6.3 0.00 0.00 0.00
-67.4 184.2 -6.3 0.00 0.00 0.00
-69.9 184.2 -6.3 0.00 0.00 0.00
-72.3 184.2 -6.3 0.00 0.00 0.00
-74.8 184.2 -6.3 0.00 0.00 0.00
-65 184.2 -7.2 0.00 0.00 0.00
-67.4 184.2 -7.2 0.00 0.00 0.00
-69.9 184.2 -7.2 0.00 0.00 0.00
-72.3 184.2 -7.2 0.00 0.00 0.00
-74.8 184.2 -7.2 0.00 0.00 0.00
-65 184.9 41.6 0.00 0.00 0.00
-67.4 184.9 41.6 0.00 0.00 0.00
-69.9 184.9 41.6 0.00 0.00 0.00
-72.3 184.9 41.6 0.00 0.00 0.00
-74.8 184.9 41.6 0.00 0.00 0.00
-65 184.9 40.7 0.00 0.00 0.00
-67.4 184.9 40.7 0.00 0.00 0.00
-69.9 184.9 40.7 0.00 0.00 0.00
-72.3 184.9 40.7 0.00 0.00 0.00
-74.8 184.9 40.7 0.00 0.00 0.00
-65 184.9 39.8 0.00 0.00 0.00
-67.4 184.9 39.8 0.00 0.00 0.00
-69.9 184.9 39.8 0.00 0.00 0.00
-72.3 184.9 39.8 0.00 0.00 0.00
-74.8 184.9 39.8 0.00 0.00 0.00
-65 184.9 38.8 0.00 0.00 0.00
-67.4 184.9 38.8 0.00 0.00 0.00
-69.9 184.9 38.8 0.00 0.00 0.00
-72.3 184.9 38.8 0.00 0.00 0.00
-74.8 184.9 38.8 0.00 0.00 0.00
-65 184.9 37.9 0.00 0.00 0.00
-67.4 184.9 37.9 0.00 0.00 0.00
-69.9 184.9 37.9 0.00 0.00 0.00
-72.3 184.9 37.9 0.00 0.00 0.00
-74.8 184.9 37.9 0.00 0.00 0.00
-65 184.9 36.9 0.00 0.00 0.00
-67.4 184.9 36.9 0.00 0.00 0.00
-69.9 184.9 36.9 0.00 0.00 0.00
-72.3 184.9 36.9 0.00 0.00 0.00
-74.8 184.9 36.9 0.00 0.00 0.00
-65 184.9 36 0.00 0.00 0.00
-67.4 184.9 36 0.00 0.00 0.00
-69.9 184.9 36 0.00 0.00 0.00
-72.3 184.9 36 0.00 0.00 0.00
-74.8 184.9 36 0.00 0.00 0.00
-65 184.9 35 0.00 0.00 0.00
-67.4 184.9 35 0.00 0.00 0.00
-69.9 184.9 35 0.00 0.00 0.00
-72.3 184.9 35 0.00 0.00 0.00
-74.8 184.9 35 0.00 0.00 0.00
-65 184.9 34.1 0.00 0.00 0.00
-67.4 184.9 34.1 0.00 0.00 0.00
-69.9 184.9 34.1 0.00 0.00 0.00
-72.3 184.9 34.1 0.00 0.00 0.00
-74.8 184.9 34.1 0.00 0.00 0.00
-65 184.9 33.1 0.00 0.00 0.00
-67.4 184.9 33.1 0.00 0.00 0.00
-69.9 184.9 33.1 0.00 0.00 0.00
-72.3 184.9 33.1 0.00 0.00 0.00
-74.8 184.9 33.1 0.00 0.00 0.00
-65 184.9 32.2 0.00 0.00 0.00
-67.4 184.9 32.2 0.00 0.00 0.00
-69.9 184.9 32.2 0.00 0.00 0.00
-72.3 184.9 32.2 0.00 0.00 0.00
-74.8 184.9 32.2 0.00 0.00 0.00
-65 184.9 31.2 0.00 0.00 0.00
-67.4 184.9 31.2 0.00 0.00 0.00
-69.9 184.9 31.2 0.00 0.00 0.00
-72.3 184.9 31.2 0.00 0.00 0.00
-74.8 184.9 31.2 0.00 0.00 0.00
-65 184.9 30.3 0.00 0.00 0.00
-67.4 184.9 30.3 0.00 0.00 0.00
-69.9 184.9 30.3 0.00 0.00 0.00
-72.3 184.9 30.3 0.00 0.00 0.00
-74.8 184.9 30.3 0.00 0.00 0.00
-65 184.9 29.4 0.00 0.00 0.00
-67.4 184.9 29.4 0.00 0.00 0.00
-69.9 184.9 29.4 0.00 0.00 0.00
